ncols        1234
nrows        31
xllcorner    8.68304192748
yllcorner    54.1789079299
cellsize     0.000507809480
0 0 0 0 0 0 0 0 0 0 0 0 0 0 0 0 0 0 0 0 0 0 0 0 0 0 0 0 0 0 0 0 0 0 0 0 0 0 0 0 0 0 0 0 0 0 0 0 0 0 0 0 0 0 0 0 0 0 0 0 0 0 0 0 0 0 0 0 0 0 0 0 0 0 0 0 0 0 0 0 0 0 0 0 0 0 0 0 0 0 0 0 0 0 0 0 0 0 0 0 0 0 0 0 0 0 0 0 0 0 0 0 0 0 0 0 0 0 0 0 0 0 0 0 0 0 0 0 0 0 0 0 0 0 0 0 0 0 0 0 0 0 0 0 0 0 0 0 0 0 0 0 0 0 0 0 0 0 0 0 0 0 0 0 0 0 0 0 0 0 0 0 0 0 0 0 0 0 0 0 0 0 0 0 0 0 0 0 0 0 0 0 0 0 0 0 0 0 0 0 0 0 0 0 0 0 0 0 0 0 0 0 0 0 0 0 0 0 0 0 0 0 0 0 0 0 0 0 0 0 0 0 0 0 0 0 0 0 0 0 0 0 0 0 0 0 0 0 0 0 0 0 0 0 0 0 0 0 0 0 0 0 0 0 0 0 0 -1 -1 -1 0 1 1 0 -1 -2 -1 -1 -1 -1 -1 -2 -1 -2 -2 -1 -1 -1 -1 -1 -1 -1 -1 -1 -1 -1 0 0 0 -1 -1 0 -1 -1 -1 -1 -1 -1 -1 -1 0 0 -1 -1 2 1 1 0 -1 -1 -1 -2 -1 -1 -1 -1 -1 -2 -2 -2 -2 -1 0 1 1 1 1 0 0 0 0 -1 -2 -1 -1 -1 -1 -2 -2 -1 -1 -1 -1 -1 0 1 0 -1 -1 -1 0 0 0 0 0 -1 0 0 0 0 1 1 2 1 1 0 1 1 1 1 1 1 0 0 1 1 1 1 1 0 -1 -1 -1 -1 -1 0 1 1 0 0 0 0 0 0 0 0 0 0 0 0 0 -1 0 1 1 1 -1 -1 -1 -1 -1 0 1 1 0 0 0 -1 0 0 1 1 2 2 3 2 1 1 1 0 0 0 0 0 0 0 1 2 1 1 0 0 0 2 2 1 0 0 0 0 0 0 1 1 0 1 1 1 0 0 1 1 0 0 0 0 0 0 0 0 0 0 0 -1 -1 -2 -1 0 0 0 0 1 1 0 -1 0 -1 -1 -1 -1 0 0 0 0 0 -1 0 0 -1 0 0 -1 -1 -1 -1 -1 -1 0 -1 -1 0 1 0 -1 -1 0 0 1 2 1 1 0 0 -1 -1 0 1 1 0 1 1 1 0 0 -1 -1 0 0 0 0 0 0 -1 -1 0 -1 0 1 1 0 0 0 0 0 0 0 0 0 0 0 0 1 1 0 -1 -1 -1 -1 0 0 1 1 1 0 -1 0 1 0 0 1 1 0 -1 -1 -1 0 1 0 -1 0 1 0 0 -1 -1 -1 -2 -1 -1 1 2 1 1 1 1 1 1 0 0 -1 -1 -1 0 0 0 1 2 2 1 0 0 0 -1 -1 -1 0 0 1 1 1 2 1 0 0 0 0 -1 -1 -1 -1 -1 -1 0 0 -1 -1 -1 0 -1 -2 -1 0 0 0 -1 -2 -2 -1 0 0 0 0 0 0 0 -1 -1 -1 0 0 -1 -2 -2 -1 -1 -1 -2 -1 -1 0 1 1 1 0 -2 -1 -1 -2 -2 -1 -1 0 1 0 0 0 -1 -1 -1 -2 -3 -2 -1 -1 0 0 0 0 0 0 0 -1 0 0 -1 0 0 -1 -1 -1 0 0 0 -1 0 1 1 0 0 1 2 3 3 4 4 3 3 3 3 4 4 4 3 5 5 5 6 7 8 7 6 5 7 8 7 7 6 7 8 8 7 8 8 7 7 7 9 9 8 7 9 10 10 10 11 11 11 11 11 10 9 9 9 10 11 11 11 12 13 13 13 13 14 15 16 16 16 15 14 16 18 18 16 16 15 15 15 15 15 15 14 13 12 11 12 13 12 10 10 10 9 10 10 10 10 8 9 10 12 12 13 17 20 18 16 15 14 13 14 14 15 15 15 14 13 13 14 13 11 9 8 7 8 8 10 11 12 13 13 13 14 15 16 15 14 14 14 15 16 17 17 17 17 15 16 16 16 16 16 16 15 15 16 15 15 15 15 13 13 12 13 12 11 11 11 11 10 9 10 10 10 10 9 10 11 10 9 8 8 7 6 6 6 6 8 9 10 10 12 11 10 11 11 11 12 14 15 16 17 17 17 18 20 22 22 22 21 22 24 26 28 29 28 26 25 25 25 25 25 25 26 28 29 32 38 41 40 39 39 39 41 42 42 39 38 40 41 41 41 41 40 38 37 36 36 36 35 34 32 25 18 18 17 16 15 15 15 16 17 16 15 15 15 15 14 12 11 10 9 8 8 8 8 8 10 10 11 12 13 14 15 16 15 15 16 17 17 17 17 18 19 20 21 22 23 23 24 26 26 27 29 30 31 31 32 33 35 36 36 35 35 34 34 33 32 33 33 32 31 31 30 30 31 30 30 31 32 33 33 33 33 34 34 34 34 35 35 36 35 35 37 37 37 37 37 37 38 39 40 40 41 42 43 44 44 44 44 45 46 47 48 48 49 50 53 55 55 56 57 59 61 62 62 62 62 63 63 64 65 65 64 66 68 69 70 70 67 65 63 60 54 51 47 47 49 50 52 53 55 55 52 48 47 47 46 47 48 49 49 50 50 49 47 46 45 43 41 40 39 38 37 37 36 35 35 34 34 33 33 34 35 34 34 34 35 34 34 34 34 34 34 35 36 36 36 36 36 37 37 37 37 37 37 38 38 37 37 37 37 37 37 37 36 35 34 34 34 35 36 37 38 38 39 39 39 40 39 39 40 39 39 38 36 36 36 36 36 36 0 0 0 0 0 0
0 0 0 0 0 0 0 0 0 0 0 0 0 0 0 0 0 0 0 0 0 0 0 0 0 0 0 0 0 0 0 0 0 0 0 0 0 0 0 0 0 0 0 0 0 0 0 0 0 0 0 0 0 0 0 0 0 0 0 0 0 0 0 0 0 0 0 0 0 0 0 0 0 0 0 0 0 0 0 0 0 0 0 0 0 0 0 0 0 0 0 0 0 0 0 0 0 0 0 0 0 0 0 0 0 0 0 0 0 0 0 0 0 0 0 0 0 0 0 0 0 0 0 0 0 0 0 0 0 0 0 0 0 0 0 0 0 0 0 0 0 0 0 0 0 0 0 0 0 0 0 0 0 0 0 0 0 0 0 0 0 0 0 0 0 0 0 0 0 0 0 0 0 0 0 0 0 0 0 0 0 0 0 0 0 0 0 0 0 0 0 0 0 0 0 0 0 0 0 0 0 0 0 0 0 0 0 0 0 0 0 0 0 0 0 0 0 0 0 0 0 0 0 0 0 0 0 0 0 0 0 0 0 0 0 0 0 0 0 0 0 0 0 0 0 0 0 0 0 0 0 0 0 0 0 0 0 0 0 0 0 0 0 0 0 0 -1 -2 -2 -1 -1 0 0 -1 -1 -1 -1 -1 0 0 -1 -2 -1 0 -1 -1 0 0 0 -1 -2 -1 0 0 -1 -1 -1 -1 -1 -1 -2 -2 -2 -2 -2 -2 -2 -2 -2 -1 -1 -1 -1 -1 0 0 0 0 0 -1 -2 -2 -1 -1 -1 -1 -1 -1 -1 -1 0 1 0 0 0 0 0 0 -1 -1 0 0 -1 -2 -1 -2 -2 -2 -2 -2 -1 -1 -1 0 0 1 1 2 1 -1 -1 0 0 0 0 2 3 2 1 0 1 1 1 1 1 0 0 0 -1 -1 -1 0 0 -1 -1 -1 0 0 0 1 0 0 0 -1 -1 0 0 0 0 0 0 -1 0 0 0 0 0 0 0 1 1 0 1 1 1 0 0 1 0 -1 -1 0 0 0 0 0 1 1 -1 -1 1 1 2 2 2 2 1 1 1 0 0 1 1 1 0 -1 -1 -1 0 1 1 0 -1 0 0 0 0 0 1 1 1 0 0 1 0 1 1 1 2 2 2 1 0 -1 -1 0 0 0 0 0 0 0 0 1 0 -1 0 0 0 0 0 0 0 0 0 0 -1 -1 -1 -1 -1 -1 0 1 0 -1 -1 -1 0 1 0 -1 -1 -1 0 -1 -1 1 2 1 0 0 -1 -2 -2 -2 0 1 1 0 0 1 -1 -2 -3 -2 -1 0 1 1 0 0 1 1 0 0 0 0 0 -1 -1 -1 0 0 1 0 -1 0 0 0 0 0 0 1 2 3 2 1 0 1 1 1 2 1 1 0 -2 -1 -1 -2 0 0 0 -1 -1 -1 -1 -1 -1 -1 -1 -1 -1 -1 -1 0 0 0 -1 -1 0 1 0 -1 -1 -2 -1 0 -1 -1 -1 -2 -1 1 1 0 -1 -2 -1 -1 -1 -1 -1 0 0 0 1 1 1 1 0 1 2 2 1 1 1 1 0 0 0 0 0 0 1 1 0 -1 0 -1 -1 -1 0 0 -1 -2 -1 0 -1 -1 0 1 1 0 0 0 0 0 1 1 0 -1 0 0 1 1 1 1 2 2 -2 -2 -2 -2 -2 -1 0 1 1 0 0 -1 -1 -1 -2 -2 -2 -1 -1 -1 -1 0 1 0 -2 -1 0 0 0 0 -1 0 0 0 0 0 1 1 0 0 0 0 0 1 0 -1 -1 -1 -1 0 -1 -1 -1 -1 -1 -1 -1 -2 -1 0 1 2 2 3 3 3 2 2 3 4 4 4 4 3 3 4 4 3 4 5 4 6 8 7 6 6 5 5 4 4 6 8 8 8 8 9 10 10 9 8 9 11 12 13 14 12 10 10 9 9 10 10 11 12 12 12 12 12 12 12 12 13 14 15 14 14 14 15 14 14 15 15 14 15 15 14 14 14 14 15 14 14 13 12 12 12 12 12 12 11 10 11 11 10 10 7 8 10 10 11 11 11 12 12 13 13 13 13 14 15 15 14 13 12 13 13 12 11 9 7 8 7 6 6 8 9 11 12 13 12 13 14 15 15 14 14 15 16 16 15 15 16 17 17 18 18 18 18 17 17 15 14 14 15 16 16 15 13 13 12 12 11 10 10 10 11 9 9 8 9 9 9 8 8 8 7 7 8 7 7 7 7 7 8 8 7 8 8 9 10 10 10 11 12 13 14 14 15 16 17 16 16 17 20 20 20 20 21 25 30 32 33 32 26 22 23 23 24 23 22 22 26 29 35 41 41 41 40 40 40 41 42 42 41 41 40 39 38 38 38 38 37 36 36 35 34 32 31 29 24 20 18 16 15 16 16 16 15 15 15 15 15 15 14 13 11 10 9 8 8 7 8 8 8 9 9 10 11 12 12 12 13 14 14 15 16 16 16 18 19 19 19 20 21 23 24 23 25 25 26 28 29 30 31 32 33 35 35 33 33 33 33 33 32 31 31 31 31 31 31 30 30 29 28 28 30 31 32 32 34 34 32 34 34 35 35 34 34 33 33 35 35 37 38 38 38 39 39 39 40 40 40 42 43 44 46 46 47 47 48 49 49 50 52 52 53 54 55 55 56 58 59 60 60 60 62 63 64 65 65 66 67 68 70 73 74 72 66 62 62 61 59 54 52 53 53 55 57 58 57 53 50 51 51 51 53 55 57 57 56 53 52 49 46 46 44 42 40 38 37 37 37 37 36 38 38 37 36 37 37 36 35 36 37 37 36 36 36 36 36 35 35 34 34 33 33 34 36 37 37 36 35 36 37 37 37 36 36 35 36 36 36 35 35 35 35 35 36 37 38 39 39 40 40 40 39 39 39 40 40 38 37 38 38 38 38 38 38 0 0 0 0 0 0
0 0 0 0 0 0 0 0 0 0 0 0 0 0 0 0 0 0 0 0 0 0 0 0 0 0 0 0 0 0 0 0 0 0 0 0 0 0 0 0 0 0 0 0 0 0 0 0 0 0 0 0 0 0 0 0 0 0 0 0 0 0 0 0 0 0 0 0 0 0 0 0 0 0 0 0 0 0 0 0 0 0 0 0 0 0 0 0 0 0 0 0 0 0 0 0 0 0 0 0 0 0 0 0 0 0 0 0 0 0 0 0 0 0 0 0 0 0 0 0 0 0 0 0 0 0 0 0 0 0 0 0 0 0 0 0 0 0 0 0 0 0 0 0 0 0 0 0 0 0 0 0 0 0 0 0 0 0 0 0 0 0 0 0 0 0 0 0 0 0 0 0 0 0 0 0 0 0 0 0 0 0 0 0 0 0 0 0 0 0 0 0 0 0 0 0 0 0 0 0 0 0 0 0 0 0 0 0 0 0 0 0 0 0 0 0 0 0 0 0 0 0 0 0 0 0 0 0 0 0 0 0 0 0 0 0 0 0 0 0 0 0 0 0 0 0 0 0 0 0 0 0 0 0 0 0 0 0 0 0 0 0 0 0 0 -1 -1 -2 -1 -1 0 1 -1 -2 -1 0 0 0 0 -1 -1 -1 -1 -1 -1 -1 -1 0 0 0 0 1 0 -1 -1 -1 -2 -2 -2 -1 -1 0 0 -1 -2 -2 -1 -1 -1 -1 -1 -1 0 0 0 -1 -1 -1 -1 0 -1 -1 0 1 1 0 -1 -2 -2 -1 0 0 -1 -1 -1 0 0 0 0 0 -1 0 0 -1 0 -1 -1 -1 0 -1 -1 -1 -1 0 0 0 0 1 1 0 1 1 0 -1 -2 0 1 0 0 0 0 1 0 0 0 0 -1 0 -1 -1 -1 0 0 0 -1 -1 -1 -1 0 0 0 -1 -1 -1 -1 0 -1 -1 0 0 0 0 0 0 0 0 0 -1 -1 0 0 1 2 3 3 2 2 2 2 1 1 0 0 0 1 1 1 1 1 1 2 2 1 1 2 3 2 1 1 1 1 1 1 1 1 1 0 0 -1 0 -1 -1 -1 -1 -1 -1 0 0 0 -1 0 0 0 -1 -1 0 0 1 2 2 1 2 1 0 -1 -1 -1 -1 -1 -1 0 0 0 0 -1 -2 -1 -1 0 0 0 -1 -1 0 0 0 0 -1 -1 0 -1 -1 -2 -2 -2 -1 -1 -1 -1 -1 -1 -1 -1 -1 -1 -1 -2 -2 -1 1 0 -2 -2 -1 -1 0 0 1 0 0 1 0 -1 0 1 1 1 0 1 1 0 0 1 0 0 0 0 0 0 0 0 0 0 0 1 0 0 0 0 0 -1 -2 -2 0 1 2 1 1 1 1 1 1 1 1 1 0 -1 0 1 0 1 1 0 0 0 0 1 1 0 0 0 0 1 1 1 1 0 0 0 1 1 0 0 -1 -1 -1 0 0 0 -1 -1 -1 0 1 1 0 0 0 0 1 0 0 0 -1 0 1 1 1 0 1 1 2 1 0 -1 0 1 2 0 0 0 1 1 0 -1 -1 -1 -1 1 1 1 0 0 0 0 1 1 0 -1 0 -1 -1 -1 -1 0 0 0 0 0 0 0 0 -1 -1 0 0 0 -1 -1 0 -1 -1 0 -1 -1 -1 0 1 1 0 -1 -1 0 0 -1 -1 -1 -1 -2 -1 0 0 0 -1 -1 -1 -1 -1 -1 0 0 0 0 0 0 0 2 1 0 0 0 0 -1 0 1 1 0 0 1 1 0 0 -1 -2 -1 0 -1 -1 -1 0 1 0 0 -1 0 0 0 2 3 4 3 3 3 3 3 3 3 3 3 4 5 6 6 6 4 4 3 4 4 4 3 3 6 8 8 8 10 10 10 9 9 10 11 11 13 13 14 14 14 13 13 12 11 11 10 10 11 12 12 12 11 12 14 16 16 16 17 16 15 14 15 15 14 14 13 13 13 13 13 13 14 13 13 13 12 12 10 9 9 10 10 9 10 10 11 10 10 9 9 14 15 16 15 13 12 11 12 12 13 14 14 14 14 13 12 11 10 10 9 8 8 8 7 7 8 8 10 11 10 9 10 11 12 13 14 14 13 13 13 14 15 15 14 14 17 18 18 17 17 18 17 15 14 13 12 10 10 10 10 9 8 8 8 9 10 10 9 8 9 9 9 8 7 7 7 6 6 6 7 6 5 5 6 7 7 6 6 7 8 9 10 10 11 11 13 14 15 15 15 16 17 17 17 17 18 18 19 19 22 28 31 34 31 26 22 21 21 21 21 21 21 24 26 32 37 39 40 39 39 39 39 38 38 39 39 39 37 35 34 32 32 31 31 32 31 30 27 24 23 21 19 18 17 16 16 17 16 16 16 15 17 17 16 15 13 11 10 10 9 8 9 9 9 9 10 10 11 11 12 12 13 14 14 14 16 17 17 17 18 19 19 20 21 22 23 23 24 25 26 28 30 31 30 30 31 32 33 33 33 33 33 33 32 31 30 30 30 30 29 29 29 29 28 29 29 30 31 32 32 32 31 30 31 32 33 33 34 35 34 33 34 35 36 37 37 37 37 39 40 41 41 42 42 44 45 46 47 49 50 50 50 51 52 53 53 54 54 55 56 58 60 61 62 61 61 63 65 66 67 67 65 65 69 74 76 77 74 69 65 63 64 64 61 57 57 58 59 60 61 61 61 62 65 65 65 63 61 60 59 58 57 54 52 47 46 45 43 42 41 40 40 39 39 38 38 39 39 38 37 36 37 37 36 35 35 35 35 35 35 34 34 33 33 33 32 33 33 34 34 34 35 36 36 37 37 37 37 37 36 36 36 36 37 37 37 37 38 38 38 39 40 40 39 39 38 38 37 37 37 38 38 37 37 37 37 37 38 37 0 0 0 0 0 0
0 0 0 0 0 0 0 0 0 0 0 0 0 0 0 0 0 0 0 0 0 0 0 0 0 0 0 0 0 0 0 0 0 0 0 0 0 0 0 0 0 0 0 0 0 0 0 0 0 0 0 0 0 0 0 0 0 0 0 0 0 0 0 0 0 0 0 0 0 0 0 0 0 0 0 0 0 0 0 0 0 0 0 0 0 0 0 0 0 0 0 0 0 0 0 0 0 0 0 0 0 0 0 0 0 0 0 0 0 0 0 0 0 0 0 0 0 0 0 0 0 0 0 0 0 0 0 0 0 0 0 0 0 0 0 0 0 0 0 0 0 0 0 0 0 0 0 0 0 0 0 0 0 0 0 0 0 0 0 0 0 0 0 0 0 0 0 0 0 0 0 0 0 0 0 0 0 0 0 0 0 0 0 0 0 0 0 0 0 0 0 0 0 0 0 0 0 0 0 0 0 0 0 0 0 0 0 0 0 0 0 0 0 0 0 0 0 0 0 0 0 0 0 0 0 0 0 0 0 0 0 0 0 0 0 0 0 0 0 0 0 0 0 0 0 0 0 0 0 0 0 0 0 0 0 0 0 0 0 0 0 0 0 0 0 0 -1 -2 -1 0 1 1 -1 -1 -1 -1 0 0 0 -1 -1 -1 0 0 -1 -1 -1 0 0 0 0 0 -1 -1 -1 -1 -2 -2 -2 -1 -1 -1 0 -1 -1 -1 -2 -2 -1 -1 -1 0 0 -1 -1 -1 -1 -2 -1 -1 -2 -1 0 1 1 0 -1 -2 -2 -1 0 0 -1 -2 -1 0 0 0 -1 -1 -1 -1 0 0 0 -1 -1 -1 0 -1 -2 -2 -1 0 -1 -1 -1 0 0 0 0 0 -1 -2 -2 -1 0 -1 0 0 0 0 0 0 0 0 0 0 0 -1 -2 -1 1 1 0 0 -1 -1 -1 0 0 -1 -1 -1 0 0 -1 -1 -1 -1 0 0 -1 -1 0 0 -1 0 0 0 0 -1 1 2 3 3 3 2 2 2 2 1 1 0 0 0 1 1 0 1 2 1 0 0 0 1 1 1 1 0 0 1 1 1 1 1 0 -1 -1 -1 -1 -1 0 0 0 0 1 1 0 0 0 0 0 -1 -2 -1 0 1 1 1 1 1 1 1 1 0 0 -1 -1 -1 0 0 0 0 -1 -1 -1 -1 -1 -1 -1 -1 0 0 0 0 0 0 -1 -1 -1 -1 -2 -2 -1 -1 -2 0 1 0 -1 -1 -1 -1 -1 -1 -1 -1 0 0 0 -1 -1 0 0 1 1 1 1 1 1 0 0 1 2 2 1 0 0 0 0 0 1 1 -1 -1 -1 -1 0 0 1 0 0 1 1 1 0 0 0 0 -1 -2 -2 -1 0 0 0 0 0 1 1 1 1 0 0 0 0 0 1 1 1 1 0 0 1 1 2 2 0 0 0 0 1 1 1 1 0 0 1 1 1 0 0 -1 -1 -2 -1 -1 0 0 0 0 0 2 1 0 0 0 0 0 0 1 0 0 0 1 1 1 0 0 0 0 0 -1 -1 0 1 1 1 1 0 0 1 0 -1 -1 -1 -1 0 1 1 0 1 1 0 1 0 -1 -1 0 0 0 0 -1 -1 0 0 0 1 1 1 0 0 0 0 0 -1 -2 -3 -2 -2 -1 -1 -2 -2 -2 -2 -1 0 0 0 -1 0 1 0 0 0 0 -1 0 1 0 -1 -1 -1 -1 -1 -1 0 1 1 0 0 0 0 0 1 1 0 0 -1 -1 -1 -1 0 0 0 -1 0 1 0 0 -1 -2 -1 0 0 -1 -1 0 1 0 0 -1 -1 0 1 2 3 4 3 3 3 2 2 3 3 4 3 5 7 7 7 7 5 5 4 5 5 5 4 3 5 7 7 9 10 10 10 9 10 11 12 11 12 13 14 14 14 13 13 12 11 11 10 10 11 12 11 11 11 12 14 15 15 15 15 14 13 13 14 15 14 14 13 13 13 13 13 14 14 13 12 12 12 12 10 9 9 9 9 9 10 10 10 11 10 9 8 11 13 15 13 12 12 11 12 13 13 13 13 13 14 13 13 12 11 10 9 8 7 8 7 7 8 8 9 10 9 8 9 11 12 13 13 13 12 12 12 12 13 13 12 11 14 16 16 15 15 16 16 16 15 13 11 9 9 9 9 8 8 8 7 8 9 9 8 8 8 8 8 7 6 7 6 6 6 6 6 5 5 5 7 8 8 7 7 8 9 9 10 10 11 11 11 12 13 14 14 15 17 17 17 17 17 17 18 19 20 25 28 32 29 23 20 20 20 20 21 20 20 22 24 29 35 38 38 39 39 39 38 37 37 37 37 35 34 33 32 30 30 29 29 29 28 27 23 22 22 20 18 18 17 16 16 17 17 16 16 16 17 17 16 16 14 12 11 10 9 9 9 9 10 10 11 11 11 12 12 12 13 14 14 14 16 16 16 17 18 18 19 20 21 23 23 24 25 26 26 28 30 31 31 31 31 32 33 33 33 32 32 32 32 31 31 30 29 29 29 29 28 28 28 29 30 30 31 31 32 31 30 30 30 31 32 33 33 34 34 33 33 35 35 37 37 37 37 39 40 41 42 43 43 44 45 47 48 50 51 51 50 51 52 54 54 54 56 56 57 58 59 59 59 60 61 63 64 65 67 67 66 66 69 73 76 75 74 71 67 65 65 65 65 62 60 59 59 60 61 62 64 65 67 67 66 64 62 60 58 57 55 54 51 47 46 45 43 42 41 42 42 41 39 38 39 40 40 38 36 35 36 36 35 35 35 36 35 34 34 34 33 33 32 32 33 34 34 34 34 34 36 37 37 37 37 37 36 36 37 38 37 37 38 38 37 37 37 37 37 37 38 37 36 36 36 37 37 36 37 37 37 37 36 37 37 38 37 37 0 0 0 0 0 0
0 0 0 0 0 0 0 0 0 0 0 0 0 0 0 0 0 0 0 0 0 0 0 0 0 0 0 0 0 0 0 0 0 0 0 0 0 0 0 0 0 0 0 0 0 0 0 0 0 0 0 0 0 0 0 0 0 0 0 0 0 0 0 0 0 0 0 0 0 0 0 0 0 0 0 0 0 0 0 0 0 0 0 0 0 0 0 0 0 0 0 0 0 0 0 0 0 0 0 0 0 0 0 0 0 0 0 0 0 0 0 0 0 0 0 0 0 0 0 0 0 0 0 0 0 0 0 0 0 0 0 0 0 0 0 0 0 0 0 0 0 0 0 0 0 0 0 0 0 0 0 0 0 0 0 0 0 0 0 0 0 0 0 0 0 0 0 0 0 0 0 0 0 0 0 0 0 0 0 0 0 0 0 0 0 0 0 0 0 0 0 0 0 0 0 0 0 0 0 0 0 0 0 0 0 0 0 0 0 0 0 0 0 0 0 0 0 0 0 0 0 0 0 0 0 0 0 0 0 0 0 0 0 0 0 0 0 0 0 0 0 0 0 0 0 0 0 0 0 0 0 0 0 0 0 0 0 0 0 0 0 0 0 -1 -1 -1 0 0 1 1 0 0 -1 0 0 -1 -1 -1 -1 -1 -2 -2 -2 -1 -1 -1 -1 -1 -1 0 -1 -1 -1 -1 0 -1 -2 -1 -1 -1 -2 -2 -2 -1 -1 -1 -1 -2 -2 -1 0 0 -1 -2 -2 -1 -1 -1 -1 -1 -1 -1 -1 0 0 -1 -1 0 0 0 -1 -2 -2 -3 -3 -2 -1 -1 -2 -2 -1 -1 -1 0 0 0 0 0 0 0 -1 -1 -1 -1 -1 -2 -1 -1 0 -1 -1 0 0 0 0 0 -1 -1 -1 0 0 -1 -1 0 0 0 0 -1 -1 -2 -2 -1 0 -1 -1 -1 0 1 0 0 1 0 0 0 1 2 1 1 0 -1 0 0 -1 -2 -1 0 0 1 1 0 -1 -2 -1 0 1 1 0 0 0 1 1 2 1 0 0 0 0 0 0 1 1 1 1 1 0 0 1 2 1 0 0 2 1 1 0 0 0 0 -1 0 -1 0 0 -1 -1 0 1 1 -1 -2 -2 0 2 1 -1 -2 -2 -1 0 1 2 2 1 1 2 2 1 0 0 -1 0 0 0 0 -1 -1 -1 -1 1 1 1 0 0 0 0 0 0 0 1 0 0 0 -1 -2 -1 0 1 2 1 -1 -1 0 0 0 0 0 -1 0 0 -1 -2 -1 -1 0 0 1 1 0 0 0 0 1 0 0 0 0 -1 -1 -1 -1 -1 -1 -1 -1 -2 -1 -1 -1 0 0 1 1 1 1 1 0 0 0 0 0 0 -1 -2 -2 -1 -1 -1 -1 1 2 2 2 1 0 -1 -1 -1 0 0 0 0 0 0 0 1 0 1 1 0 -1 0 0 0 0 0 0 0 0 0 0 0 1 0 0 0 -1 -1 0 1 1 0 0 -1 -1 0 -1 -1 0 0 0 0 1 1 1 1 3 4 4 2 0 0 0 -1 -1 -1 -1 0 -1 -1 -1 -1 -1 -1 -1 -1 0 0 -1 -1 0 0 0 0 1 0 0 -1 -1 0 0 0 0 0 0 0 0 0 0 0 1 1 -1 -1 0 1 1 0 -1 -2 -2 -1 0 -1 -1 -1 -2 -3 -2 0 1 2 1 2 2 1 0 0 -1 0 1 2 1 0 2 3 1 0 0 0 1 1 0 0 0 -1 -1 0 0 -1 -1 -1 -1 -1 -1 0 1 0 -1 -1 -1 -1 -1 -1 -2 -3 -2 -1 -1 1 2 2 1 1 0 1 2 2 3 3 4 5 6 5 3 3 3 5 7 6 5 4 4 6 6 5 5 5 5 4 4 3 3 5 5 6 8 9 9 9 10 9 11 12 13 12 12 11 11 11 11 11 11 11 11 10 10 11 12 12 12 12 12 13 15 14 14 14 13 13 13 13 13 13 13 12 11 11 12 13 14 13 12 12 12 12 12 12 11 11 11 11 10 9 10 9 9 9 8 7 6 7 8 9 9 10 12 14 15 15 12 11 11 11 9 8 10 11 10 9 8 7 6 6 7 8 9 9 10 9 8 8 10 10 11 12 12 11 11 12 12 12 12 10 10 12 13 13 13 12 13 12 11 12 12 11 10 8 7 7 6 5 5 6 7 8 8 7 6 5 5 5 5 5 5 5 6 6 5 5 5 5 6 8 9 9 9 10 9 8 8 8 9 9 9 9 9 10 11 11 12 13 13 14 15 15 15 15 16 17 20 22 22 20 19 19 19 19 20 20 19 19 19 20 21 24 29 35 38 38 39 38 36 35 33 32 31 31 31 29 27 27 27 27 26 25 23 19 19 19 17 17 17 16 16 16 16 16 16 16 15 17 16 15 15 14 13 11 10 9 8 9 10 11 11 11 11 12 12 13 13 13 14 14 14 15 16 16 17 18 19 20 21 22 22 22 24 26 27 27 28 29 29 30 31 32 33 35 35 34 32 32 31 31 30 29 29 28 27 28 28 28 28 28 28 28 28 28 29 29 29 29 30 31 31 32 32 32 33 32 33 33 35 37 38 39 39 39 39 40 40 40 41 42 43 45 47 48 51 52 51 52 53 54 55 56 56 56 55 55 56 57 57 58 59 59 59 61 63 65 65 65 65 66 69 71 72 73 72 70 69 68 68 67 67 65 63 62 61 62 63 63 61 62 62 61 60 61 59 56 54 53 51 49 48 48 46 45 44 42 41 41 41 40 39 40 41 41 39 36 34 34 34 34 33 33 34 34 33 33 33 33 33 32 34 35 34 34 34 35 35 36 37 38 38 38 37 37 37 37 37 36 36 35 34 34 33 34 35 35 35 37 36 35 35 36 36 36 37 38 38 38 36 34 34 34 35 35 34 0 0 0 0 0 0
0 0 0 0 0 0 0 0 0 0 0 0 0 0 0 0 0 0 0 0 0 0 0 0 0 0 0 0 0 0 0 0 0 0 0 0 0 0 0 0 0 0 0 0 0 0 0 0 0 0 0 0 0 0 0 0 0 0 0 0 0 0 0 0 0 0 0 0 0 0 0 0 0 0 0 0 0 0 0 0 0 0 0 0 0 0 0 0 0 0 0 0 0 0 0 0 0 0 0 0 0 0 0 0 0 0 0 0 0 0 0 0 0 0 0 0 0 0 0 0 0 0 0 0 0 0 0 0 0 0 0 0 0 0 0 0 0 0 0 0 0 0 0 0 0 0 0 0 0 0 0 0 0 0 0 0 0 0 0 0 0 0 0 0 0 0 0 0 0 0 0 0 0 0 0 0 0 0 0 0 0 0 0 0 0 0 0 0 0 0 0 0 0 0 0 0 0 0 0 0 0 0 0 0 0 0 0 0 0 0 0 0 0 0 0 0 0 0 0 0 0 0 0 0 0 0 0 0 0 0 0 0 0 0 0 0 0 0 0 0 0 0 0 0 0 0 0 0 0 0 0 0 0 0 0 0 0 0 0 0 0 0 -2 -2 -1 0 1 1 1 1 0 0 0 -1 -1 -1 -1 -1 -1 -1 -1 -2 -2 -2 -2 -2 -2 -1 -1 0 0 -1 -2 -1 -1 -1 -1 -1 -1 0 -1 -1 0 -1 -2 -2 -1 0 0 -1 0 0 -1 -2 -2 -1 -1 -1 -1 -2 -2 -1 -1 -1 -1 0 1 0 0 -1 -2 -3 -3 -3 -2 -2 -1 -1 -1 -1 0 0 0 0 -1 0 0 -1 -1 -2 -2 -2 -2 -2 -1 -1 -1 -1 -2 -3 -2 -1 -1 -1 -1 0 0 0 1 1 0 -1 -2 -1 -1 0 0 -1 -2 -1 0 0 0 -1 -1 -1 0 0 0 0 0 0 0 0 0 1 2 2 0 -1 -1 0 0 -1 -1 0 0 0 0 0 -1 0 0 1 0 0 1 0 -1 -1 -1 0 1 1 0 0 1 1 0 0 0 0 1 0 1 1 -1 -2 -1 0 1 0 -1 -1 -1 0 0 0 -1 0 0 0 0 -1 -1 -1 0 0 -1 -1 -2 -1 1 1 1 0 0 -1 -1 0 1 1 1 1 2 2 0 0 0 0 0 0 -1 0 0 0 0 0 0 0 1 0 0 0 1 1 0 -1 -1 0 0 0 -1 0 1 1 1 0 0 0 0 -1 -1 -1 0 1 0 0 0 0 0 0 0 0 0 0 0 0 0 0 0 0 -1 -1 0 0 0 0 0 0 -1 -1 0 -1 -1 -1 -1 -1 0 0 0 0 0 0 1 0 -1 -1 -1 -1 -1 -1 -1 0 0 1 0 -1 -1 0 0 1 1 0 0 1 0 1 0 -1 -1 -1 -1 -1 0 -1 -1 -1 -2 -2 0 1 1 1 1 0 0 0 1 1 1 1 2 2 2 2 1 1 1 2 1 0 -1 -2 -2 -1 -1 0 0 -1 0 0 0 0 0 0 1 1 1 0 -1 -1 0 1 2 2 0 -1 -1 -1 -1 0 1 2 1 0 -1 0 0 0 0 1 1 0 0 0 1 2 1 0 -1 -1 -1 -1 -1 -2 -1 0 0 1 2 1 0 0 0 -1 -1 0 0 0 0 0 0 0 1 1 0 0 1 3 5 6 5 2 1 0 0 1 1 0 0 0 0 1 1 2 1 0 0 -1 -1 0 1 0 0 0 1 2 1 1 0 0 0 0 0 0 0 1 1 1 1 1 1 1 -1 -2 -1 -1 -2 1 2 2 2 1 1 2 3 3 3 4 5 4 2 2 3 5 6 6 6 5 6 5 7 6 4 4 4 4 4 4 5 6 8 9 9 9 9 9 10 10 9 9 10 11 11 11 11 11 11 9 8 8 9 9 9 10 12 12 12 12 12 13 13 15 15 14 13 12 13 14 13 12 12 12 12 12 12 12 12 11 12 13 13 12 10 11 12 12 12 11 10 9 9 10 10 9 8 7 6 6 6 7 7 7 9 10 11 10 9 9 11 11 11 11 10 9 9 8 7 6 6 5 5 5 6 7 8 8 8 8 8 7 7 9 10 10 9 10 10 9 10 11 10 9 10 12 12 11 10 10 10 10 10 10 10 9 8 6 6 5 5 4 5 6 7 7 7 6 4 4 4 4 3 2 4 5 5 3 3 4 5 6 10 12 12 10 9 8 8 7 7 8 9 9 9 8 8 9 10 11 12 12 13 15 15 15 15 15 14 16 17 17 15 16 16 17 17 18 19 18 18 18 18 18 20 24 28 33 33 33 34 34 33 33 33 31 30 30 28 27 27 25 23 21 19 18 17 17 16 15 15 16 17 17 16 17 17 16 16 17 17 15 15 15 13 11 10 9 9 9 9 10 11 11 11 11 12 13 14 15 15 16 16 17 17 17 17 18 19 20 21 22 22 22 23 24 26 27 27 27 28 29 30 32 32 32 33 33 32 33 33 32 30 29 28 28 29 29 29 28 28 28 27 28 29 29 28 28 28 28 29 30 31 31 32 32 34 35 36 36 35 35 36 36 36 36 38 39 39 38 39 42 41 41 41 44 45 46 47 49 51 53 53 53 53 53 54 55 55 56 57 57 58 58 58 59 62 63 64 64 64 65 65 66 67 68 68 69 71 71 69 68 67 66 64 62 61 60 59 59 58 58 57 57 56 56 56 55 53 52 52 50 49 48 48 47 46 45 44 43 42 40 39 39 39 39 39 38 36 35 34 34 34 33 32 32 33 33 33 33 32 33 33 34 33 34 34 35 36 36 37 38 38 38 38 37 37 37 37 36 35 35 35 35 34 33 33 33 34 35 35 35 36 36 37 36 36 37 37 37 37 36 35 35 35 36 35 34 0 0 0 0 0 0
0 0 0 0 0 0 0 0 0 0 0 0 0 0 0 0 0 0 0 0 0 0 0 0 0 0 0 0 0 0 0 0 0 0 0 0 0 0 0 0 0 0 0 0 0 0 0 0 0 0 0 0 0 0 0 0 0 0 0 0 0 0 0 0 0 0 0 0 0 0 0 0 0 0 0 0 0 0 0 0 0 0 0 0 0 0 0 0 0 0 0 0 0 0 0 0 0 0 0 0 0 0 0 0 0 0 0 0 0 0 0 0 0 0 0 0 0 0 0 0 0 0 0 0 0 0 0 0 0 0 0 0 0 0 0 0 0 0 0 0 0 0 0 0 0 0 0 0 0 0 0 0 0 0 0 0 0 0 0 0 0 0 0 0 0 0 0 0 0 0 0 0 0 0 0 0 0 0 0 0 0 0 0 0 0 0 0 0 0 0 0 0 0 0 0 0 0 0 0 0 0 0 0 0 0 0 0 0 0 0 0 0 0 0 0 0 0 0 0 0 0 0 0 0 0 0 0 0 0 0 0 0 0 0 0 0 0 0 0 0 0 0 0 0 0 0 0 0 0 0 0 0 0 0 0 0 0 0 0 0 0 0 -1 -1 -2 -2 0 1 2 1 0 0 0 0 -1 -1 -1 -1 -1 -1 -1 -2 -2 -1 -1 -2 -1 -2 -2 -2 -1 -1 -1 -1 -1 -1 -1 -2 -2 -2 -2 -2 -1 -1 -1 -1 -1 -1 -1 -1 -2 -3 -2 -2 -2 -1 -1 -1 -1 -1 -1 0 0 1 1 1 0 -1 -2 -3 -4 -4 -3 -3 -2 -1 0 -1 -1 -1 -1 0 0 0 -1 0 1 0 -2 -3 -2 -2 -1 -1 -1 -1 0 -1 -2 -2 0 0 0 -1 -2 -1 -1 -2 -1 1 1 0 -1 -1 -1 0 0 0 -1 0 0 0 0 0 1 1 0 0 0 -1 -1 -1 0 1 1 0 -1 -1 -1 -1 -1 -1 0 -1 -1 0 0 0 0 0 1 1 0 0 1 1 0 0 -1 -1 -1 0 1 1 2 2 2 1 1 0 -1 -1 -1 -2 -1 0 -1 -1 -1 -1 0 1 2 2 1 1 1 1 1 0 1 0 -1 -1 -1 -1 -1 0 0 0 -1 -1 -1 -1 0 -1 -1 -1 -1 0 0 1 1 1 1 1 1 0 0 0 0 0 0 1 1 1 1 1 0 0 1 2 1 0 -1 0 0 0 0 1 0 0 0 -1 0 0 -1 0 0 1 0 0 0 0 1 1 1 1 1 0 0 0 0 1 1 2 1 0 0 0 0 0 0 0 -1 -1 -1 -1 0 1 0 -1 0 1 1 -1 -1 -1 0 -1 -1 -1 0 1 0 0 0 0 0 0 -1 -1 0 0 0 0 -1 -1 1 1 1 1 1 -1 -2 -1 -1 0 1 1 1 1 -1 -2 -1 -1 -1 -1 -1 -1 0 0 0 0 -1 0 0 1 2 3 2 1 1 2 2 1 1 0 0 0 0 0 -1 -1 -1 0 0 0 0 -1 -1 -1 -1 -1 -1 0 1 1 1 1 0 1 1 1 0 0 0 0 0 0 -1 -1 -1 0 1 0 0 -1 -1 0 0 1 1 0 -1 0 0 1 0 0 -1 0 0 0 -1 -1 -1 -1 0 1 1 1 1 1 1 -1 -2 -1 0 1 1 -1 0 2 0 -1 -2 0 1 2 2 2 0 -2 -1 0 0 0 -1 -1 0 0 -1 -2 -1 0 0 -1 -1 -1 0 1 0 -1 -2 0 3 4 4 3 1 1 0 -1 0 1 2 1 0 0 2 2 2 2 1 0 -1 0 1 2 1 1 1 0 2 3 3 3 3 3 5 6 5 4 4 3 2 4 5 6 5 6 8 8 7 7 7 6 5 6 7 8 9 10 10 8 8 8 9 10 11 10 11 11 9 9 9 9 9 8 7 8 8 8 10 11 12 12 13 13 13 13 13 13 14 14 13 12 14 16 15 13 10 10 12 12 12 13 11 10 10 12 14 13 10 10 10 10 9 7 6 7 9 9 8 7 7 7 7 7 7 7 6 7 6 6 7 8 7 9 10 10 11 11 11 9 8 7 8 7 6 5 4 4 6 8 7 6 5 6 7 7 7 10 12 11 10 9 10 11 11 12 10 10 10 11 11 10 9 8 8 8 8 8 8 8 7 6 6 5 6 6 7 8 9 9 6 3 3 3 3 2 1 2 2 2 3 3 3 4 7 8 11 12 13 11 8 7 6 7 8 9 9 9 9 9 9 8 8 9 10 11 13 13 13 13 12 14 15 16 15 14 15 15 16 16 16 17 17 17 17 17 17 17 19 19 20 21 21 22 25 27 28 29 30 29 28 27 25 23 22 20 19 18 17 16 15 15 16 16 16 16 16 15 15 16 17 17 17 16 15 15 14 14 12 11 10 10 9 9 8 8 10 11 11 11 11 13 14 15 16 15 16 18 19 18 18 18 19 20 21 22 22 23 24 25 26 26 26 27 29 30 29 30 31 31 31 31 31 30 30 29 29 29 29 28 28 27 27 27 27 27 27 27 28 29 30 30 30 30 30 30 32 32 33 33 34 35 36 37 37 36 36 37 38 38 39 39 39 40 39 39 40 42 45 45 45 45 45 47 48 49 50 51 52 53 54 55 55 57 59 60 60 60 60 62 62 62 62 62 63 65 66 66 66 67 66 66 67 66 65 64 63 61 60 58 56 56 55 55 55 54 54 54 54 53 53 53 52 52 51 50 50 49 49 47 46 45 44 44 43 41 38 37 36 36 36 36 35 35 34 34 34 34 34 33 33 33 32 31 32 33 33 33 34 35 34 34 35 36 37 36 35 36 36 36 36 36 36 35 35 35 34 33 32 33 32 32 33 34 34 35 36 37 38 37 37 37 36 35 36 37 38 37 36 35 35 34 0 0 0 0 0 0
0 0 0 0 0 0 0 0 0 0 0 0 0 0 0 0 0 0 0 0 0 0 0 0 0 0 0 0 0 0 0 0 0 0 0 0 0 0 0 0 0 0 0 0 0 0 0 0 0 0 0 0 0 0 0 0 0 0 0 0 0 0 0 0 0 0 0 0 0 0 0 0 0 0 0 0 0 0 0 0 0 0 0 0 0 0 0 0 0 0 0 0 0 0 0 0 0 0 0 0 0 0 0 0 0 0 0 0 0 0 0 0 0 0 0 0 0 0 0 0 0 0 0 0 0 0 0 0 0 0 0 0 0 0 0 0 0 0 0 0 0 0 0 0 0 0 0 0 0 0 0 0 0 0 0 0 0 0 0 0 0 0 0 0 0 0 0 0 0 0 0 0 0 0 0 0 0 0 0 0 0 0 0 0 0 0 0 0 0 0 0 0 0 0 0 0 0 0 0 0 0 0 0 0 0 0 0 0 0 0 0 0 0 0 0 0 0 0 0 0 0 0 0 0 0 0 0 0 0 0 0 0 0 0 0 0 0 0 0 0 0 0 0 0 0 0 0 0 0 0 0 0 0 0 0 0 0 0 0 0 0 -1 -1 0 0 0 1 1 0 -1 0 0 0 -1 -1 -1 -1 -1 -1 -1 -2 -1 -1 -1 -1 -1 -1 -1 -1 -2 -1 -1 -2 -2 -2 -1 0 -1 -1 -1 -1 -1 -1 -1 0 0 1 0 -1 -1 -1 -1 -1 -2 -2 -2 -2 -1 0 0 1 0 -1 -1 -1 -1 -1 -2 -2 -2 -3 -3 -2 -2 -2 -2 -2 -1 -1 -1 -1 0 -1 -1 0 0 0 -1 -2 -2 -1 -1 -1 -1 -2 -2 -1 -1 -2 -2 -1 0 0 -1 -2 -1 -1 -2 -1 1 0 -1 -1 0 0 0 0 0 1 0 0 0 -1 -1 0 0 1 1 1 0 -1 -1 0 2 2 1 0 0 0 -1 -1 -1 0 0 -1 0 1 0 0 0 0 0 0 0 0 0 0 -1 0 0 0 0 0 -1 -2 0 1 1 1 1 -1 -1 -2 -2 -1 -1 0 1 1 0 0 1 1 1 1 0 0 0 0 -1 0 1 1 1 1 0 -1 -2 -1 0 0 0 -1 -1 0 -1 -1 -1 -1 0 0 0 1 0 -1 -1 0 0 0 0 -1 -1 -1 0 0 1 0 0 1 1 1 1 0 -1 -1 -1 0 1 1 1 0 0 -1 -1 0 0 -1 -2 -1 -1 -1 -1 -1 -1 0 1 2 3 3 3 3 3 2 1 1 0 0 -1 0 1 1 1 0 -1 -1 -1 -1 -1 -1 0 0 -1 0 3 4 2 1 1 2 1 1 0 1 0 0 0 1 1 1 0 -1 0 1 0 0 -1 -2 -2 0 0 0 0 0 -1 -2 -1 1 1 2 0 0 0 -1 -1 -1 0 0 0 0 0 1 1 0 0 0 0 1 1 0 -1 0 1 1 0 0 0 -1 -1 -1 -1 0 1 0 0 0 1 1 0 0 0 -1 -1 2 1 0 0 1 1 1 0 -1 -1 -1 -1 -1 -1 0 1 1 1 0 -1 0 0 1 0 0 -1 -1 0 0 0 1 2 2 1 0 1 0 -1 -1 -1 -1 -1 -1 0 -1 -2 -2 -1 -1 -2 -1 -1 0 1 0 0 3 4 2 0 0 0 -1 -2 -3 -1 0 0 -1 -1 0 0 0 0 0 0 0 0 0 0 -1 -1 -1 -1 -1 -1 -1 -1 0 0 1 0 0 1 3 4 3 3 2 1 1 0 1 2 2 1 0 0 1 1 1 0 0 0 -1 0 0 1 2 1 1 1 2 3 4 4 3 4 5 5 5 6 6 5 5 6 6 5 5 6 6 5 7 8 9 8 9 9 8 7 7 8 8 8 9 9 10 11 10 9 9 9 5 6 6 6 7 8 8 8 8 8 10 11 12 11 10 10 10 12 12 13 14 13 12 13 14 15 16 16 13 12 13 14 13 12 12 13 12 11 12 13 12 11 11 10 10 11 11 10 10 10 9 8 9 9 8 8 8 8 7 6 6 6 6 6 6 6 6 6 6 7 8 8 9 9 7 5 3 4 5 5 6 5 4 3 3 4 5 6 6 7 9 8 7 6 7 8 9 10 10 10 9 9 9 8 8 8 7 8 9 8 8 8 6 5 5 5 5 7 9 11 12 13 7 2 1 2 2 1 1 1 2 2 2 3 4 5 6 7 8 8 8 9 8 7 6 6 7 7 8 8 9 9 9 8 8 9 9 9 11 11 12 12 13 13 14 15 14 14 14 14 15 16 16 16 16 16 17 17 16 16 17 17 16 16 16 16 17 18 20 22 24 23 21 19 18 16 16 16 15 14 15 15 16 17 16 17 16 15 14 14 15 16 17 18 18 17 15 14 13 13 12 12 10 9 9 9 8 9 11 12 12 12 12 13 15 16 17 16 17 19 20 20 20 20 20 20 21 22 23 23 24 25 27 27 27 27 28 29 31 32 33 31 30 32 31 29 28 27 27 28 28 27 25 25 25 26 27 27 28 28 28 28 29 30 30 29 29 30 31 31 32 32 33 34 35 36 38 39 38 39 39 39 40 39 40 41 41 41 42 44 45 46 46 46 46 46 48 49 48 49 52 54 55 56 57 58 59 60 61 61 61 63 64 64 63 63 64 65 66 66 65 66 65 66 65 64 62 61 60 60 58 57 56 55 55 55 55 53 52 52 52 51 50 51 51 51 51 50 50 49 49 47 45 44 44 43 42 41 40 38 37 37 37 36 36 35 34 34 34 35 35 34 33 33 32 31 31 32 32 33 34 34 34 34 35 35 36 35 35 36 37 37 36 35 34 34 34 34 33 33 33 33 33 33 34 33 34 35 38 38 38 37 37 37 36 35 35 35 34 34 34 34 35 35 0 0 0 0 0 0
0 0 0 0 0 0 0 0 0 0 0 0 0 0 0 0 0 0 0 0 0 0 0 0 0 0 0 0 0 0 0 0 0 0 0 0 0 0 0 0 0 0 0 0 0 0 0 0 0 0 0 0 0 0 0 0 0 0 0 0 0 0 0 0 0 0 0 0 0 0 0 0 0 0 0 0 0 0 0 0 0 0 0 0 0 0 0 0 0 0 0 0 0 0 0 0 0 0 0 0 0 0 0 0 0 0 0 0 0 0 0 0 0 0 0 0 0 0 0 0 0 0 0 0 0 0 0 0 0 0 0 0 0 0 0 0 0 0 0 0 0 0 0 0 0 0 0 0 0 0 0 0 0 0 0 0 0 0 0 0 0 0 0 0 0 0 0 0 0 0 0 0 0 0 0 0 0 0 0 0 0 0 0 0 0 0 0 0 0 0 0 0 0 0 0 0 0 0 0 0 0 0 0 0 0 0 0 0 0 0 0 0 0 0 0 0 0 0 0 0 0 0 0 0 0 0 0 0 0 0 0 0 0 0 0 0 0 0 0 0 0 0 0 0 0 0 0 0 0 0 0 0 0 0 0 0 0 0 0 -2 -1 -1 -1 -1 0 0 1 1 0 0 0 0 -1 -2 -2 -1 -1 -1 0 0 -1 -1 -2 -2 -2 -2 -1 0 0 0 1 1 0 0 0 0 0 0 0 -1 -1 -1 -1 -2 -3 -3 -2 -1 -1 0 0 0 -1 0 0 0 0 -1 -1 -1 -1 -1 -2 -2 -1 -1 -1 -1 -1 -1 -1 -2 -2 -2 -2 -3 -3 -1 0 0 0 -1 -2 -1 -1 0 0 0 -1 -1 -1 -1 -1 -1 -1 -1 -1 -1 -1 -1 -1 0 0 -1 -1 -1 -1 -1 -1 0 0 0 0 1 1 1 0 -1 0 -1 -1 0 1 1 0 0 0 1 1 0 0 0 1 2 2 1 1 1 0 -1 -1 -1 0 1 0 0 0 0 0 0 -1 -1 -1 -1 -1 -1 -1 -1 1 1 1 1 1 0 -1 0 1 1 0 0 0 0 -1 -1 -1 -2 -1 -1 -1 -1 0 -1 -1 -1 -1 0 0 0 0 -1 -1 0 0 1 1 1 0 0 0 0 0 0 0 0 0 -1 -1 -1 0 1 0 -1 0 1 0 -1 -1 0 0 0 0 -1 0 1 2 2 1 1 1 1 1 0 -1 -1 0 1 1 1 0 -1 -1 -1 0 1 2 1 0 0 0 -1 -1 -2 -2 0 2 3 3 4 4 3 3 2 2 1 1 0 -1 -1 0 -1 -3 -3 -1 0 0 0 1 0 0 0 0 -1 -2 -1 0 -1 -1 -1 0 1 1 0 0 0 0 0 1 1 1 1 1 1 0 -1 -1 1 1 0 0 0 0 -1 0 1 1 2 1 -1 -1 -1 0 0 0 -1 -1 -1 0 0 1 0 1 0 0 0 -1 -1 -1 -2 -2 -1 0 2 1 -1 -1 -1 -1 1 2 2 1 0 -1 0 0 1 1 0 -1 -1 -1 -1 -1 -1 -1 0 1 1 0 0 -1 -1 -1 -2 -2 -2 -2 -1 -1 -1 0 0 1 1 0 1 1 0 -1 0 0 -1 -1 0 1 1 0 1 0 -1 0 0 0 0 -1 -1 -1 -1 -1 0 -1 1 2 2 2 1 1 1 2 2 2 1 0 -1 -1 -1 -1 -1 -1 -2 -2 -1 0 0 0 0 0 -1 -1 0 0 1 0 1 1 1 0 1 1 0 0 0 -1 0 0 1 3 4 4 4 3 3 2 1 0 0 0 0 -1 0 1 1 1 0 -1 0 1 2 3 5 4 3 3 4 5 7 8 8 7 5 6 6 7 7 7 7 7 6 6 6 5 4 5 6 7 7 8 7 8 8 8 7 8 10 10 9 8 8 9 9 9 7 6 7 6 7 6 6 7 8 8 9 8 8 9 9 8 9 10 10 12 13 13 12 12 12 13 14 15 15 16 15 14 14 14 14 14 14 14 15 14 13 12 14 14 13 12 12 12 12 12 11 10 10 10 10 9 8 7 7 7 6 6 6 5 5 5 7 7 6 5 5 6 6 5 6 6 6 6 5 3 5 5 5 3 2 2 1 1 2 2 3 3 4 4 3 2 3 3 4 5 4 5 6 6 4 4 4 3 3 4 4 5 5 5 5 4 4 4 4 6 8 8 7 7 6 4 2 1 1 1 1 2 3 3 2 3 3 4 4 4 4 4 5 6 6 7 7 7 7 6 7 8 8 8 8 7 7 8 8 7 8 10 11 11 11 12 12 13 14 15 15 15 15 15 15 15 16 16 16 16 17 17 17 17 17 16 15 15 15 16 16 16 17 18 17 15 14 14 15 15 15 15 15 15 15 15 15 15 15 15 15 14 15 15 15 16 17 17 16 15 14 14 14 13 12 11 10 9 8 9 10 12 13 12 12 12 13 14 15 16 17 19 19 19 21 21 22 22 21 23 24 24 25 26 27 28 27 27 27 28 29 30 32 33 32 31 29 27 27 27 27 26 26 27 27 27 26 26 26 27 27 27 27 28 28 28 28 28 28 29 30 31 31 32 34 36 36 36 37 38 39 40 40 40 40 40 41 42 43 43 42 43 45 47 48 48 49 48 48 49 50 50 50 51 53 55 57 58 59 60 61 62 62 63 64 65 65 65 65 65 65 66 67 68 67 65 64 64 63 62 61 59 58 57 56 56 55 55 55 55 54 53 52 51 52 53 52 51 50 50 49 49 49 49 47 45 44 44 43 42 40 38 37 36 36 36 35 34 34 33 33 32 32 32 32 33 32 32 30 29 30 31 31 31 31 33 34 35 35 35 35 35 34 35 36 36 35 34 34 34 34 33 33 32 33 33 34 34 34 34 35 36 36 36 35 36 35 34 34 34 33 33 32 32 33 33 34 0 0 0 0 0 0
0 0 0 0 0 0 0 0 0 0 0 0 0 0 0 0 0 0 0 0 0 0 0 0 0 0 0 0 0 0 0 0 0 0 0 0 0 0 0 0 0 0 0 0 0 0 0 0 0 0 0 0 0 0 0 0 0 0 0 0 0 0 0 0 0 0 0 0 0 0 0 0 0 0 0 0 0 0 0 0 0 0 0 0 0 0 0 0 0 0 0 0 0 0 0 0 0 0 0 0 0 0 0 0 0 0 0 0 0 0 0 0 0 0 0 0 0 0 0 0 0 0 0 0 0 0 0 0 0 0 0 0 0 0 0 0 0 0 0 0 0 0 0 0 0 0 0 0 0 0 0 0 0 0 0 0 0 0 0 0 0 0 0 0 0 0 0 0 0 0 0 0 0 0 0 0 0 0 0 0 0 0 0 0 0 0 0 0 0 0 0 0 0 0 0 0 0 0 0 0 0 0 0 0 0 0 0 0 0 0 0 0 0 0 0 0 0 0 0 0 0 0 0 0 0 0 0 0 0 0 0 0 0 0 0 0 0 0 0 0 0 0 0 0 0 0 0 0 0 0 0 0 0 0 0 0 0 0 0 -1 -1 -2 -1 -1 0 0 1 0 -1 0 0 0 -1 -2 -2 -1 -1 -1 -1 -1 -1 -1 -1 -1 -2 -2 -1 0 0 1 1 2 1 0 1 1 0 1 1 0 0 -1 -1 -2 -2 -2 -2 -1 0 0 0 0 -1 0 0 0 -1 -2 -2 -2 -2 -2 -3 -2 -1 -1 -1 -1 -1 -2 -1 -2 -2 -2 -2 -3 -3 -1 1 1 0 -1 -2 -2 -1 0 0 0 -1 -1 -1 -1 0 0 0 -1 -1 -1 -1 -1 -1 -1 -1 -1 -1 -1 0 -1 -1 -1 0 0 0 0 0 0 0 -1 0 -1 0 0 1 2 1 1 0 0 0 1 0 0 1 1 1 1 1 1 0 -1 -1 -1 -1 0 0 0 0 0 0 -1 -1 -1 0 -1 -1 -1 -1 0 0 0 0 1 1 0 -1 -2 -1 -1 -1 -1 -1 -1 -1 0 0 -1 -1 -1 -2 -1 0 -1 -1 -1 0 1 1 0 0 0 0 0 0 0 0 0 0 -1 -1 0 0 0 0 0 0 -1 -1 -1 0 1 1 0 -1 0 0 0 0 0 0 0 -1 -2 -1 0 1 1 1 0 1 1 1 1 1 1 1 1 1 0 1 1 0 0 1 2 2 1 0 0 0 -1 -1 -2 -2 -1 1 3 4 5 5 4 2 1 0 -1 -1 -1 -1 -1 0 -1 -3 -3 -1 -1 0 0 -1 0 0 0 0 -1 -2 -1 0 0 0 0 0 1 1 1 0 0 0 0 0 0 0 1 2 1 0 -1 0 1 2 1 0 0 0 0 0 1 0 0 0 0 -1 -1 0 0 0 0 0 0 0 0 0 1 1 1 0 0 0 0 0 -1 -1 1 1 2 1 0 0 -1 -1 0 1 1 0 -1 -1 -1 0 0 0 0 0 0 0 -1 -1 -2 -1 1 1 1 0 1 0 0 -1 -2 -2 -3 -2 -1 -1 -1 -1 0 1 1 0 1 1 2 1 2 2 1 1 1 2 1 1 0 0 0 0 1 1 0 0 0 0 0 1 0 -1 1 2 2 1 1 1 1 1 1 1 1 0 -1 -1 -1 -1 -1 -1 -2 -2 -1 -1 0 1 1 1 0 0 1 2 2 2 2 2 2 1 1 1 1 1 0 0 0 1 2 3 4 4 4 3 2 1 0 -1 0 1 0 -1 -1 0 0 1 0 -1 0 2 3 4 5 5 3 3 4 5 6 7 7 5 5 6 6 8 9 9 9 9 7 6 6 5 4 6 7 7 7 8 8 8 7 6 7 8 9 9 9 9 9 9 9 9 7 6 6 6 7 6 6 6 7 8 8 8 7 7 7 7 8 10 10 12 13 13 12 12 12 13 14 15 15 15 15 14 14 14 13 13 14 14 13 12 12 12 14 14 13 11 11 11 12 12 11 9 8 9 10 9 7 6 6 6 6 7 6 5 5 6 7 6 6 5 5 5 5 4 5 5 4 4 4 4 3 4 4 2 1 1 1 1 2 1 2 2 2 3 3 2 2 4 5 5 4 4 5 5 3 3 3 2 3 4 4 4 4 4 4 3 3 3 4 7 9 8 7 6 4 2 1 1 2 2 1 1 2 2 2 2 3 4 4 5 5 4 3 4 5 6 6 6 7 7 7 7 7 7 7 7 8 8 9 8 8 9 11 11 11 12 11 12 13 14 14 15 15 15 15 15 16 17 16 15 15 16 17 16 16 15 14 14 14 14 15 14 14 15 14 14 13 14 14 14 15 15 15 14 14 14 14 15 15 15 15 16 17 17 16 16 16 16 16 15 15 14 14 14 13 12 11 10 9 10 11 12 12 12 12 13 14 14 15 16 16 18 19 20 21 22 23 22 22 23 24 25 25 26 28 29 28 28 28 29 29 30 31 32 32 31 30 28 29 29 27 26 26 27 28 27 28 27 28 28 28 28 28 28 28 28 28 28 29 30 30 31 31 33 35 36 37 37 37 37 38 39 41 42 42 43 43 44 45 44 44 43 44 47 49 49 49 49 50 51 51 52 52 52 53 54 56 57 59 60 61 62 62 63 65 66 65 65 65 65 66 66 67 68 67 65 64 64 64 63 62 59 58 57 57 56 55 55 55 55 54 52 52 52 53 53 51 50 49 48 47 48 48 48 47 46 46 44 42 41 39 37 37 36 35 35 33 32 31 32 32 31 31 31 31 32 32 32 31 30 30 30 30 30 30 33 34 35 35 35 35 34 34 35 36 37 36 34 33 33 33 32 31 31 33 34 34 35 36 36 36 36 36 35 36 37 35 34 34 34 33 32 31 31 32 33 34 0 0 0 0 0 0
0 0 0 0 0 0 0 0 0 0 0 0 0 0 0 0 0 0 0 0 0 0 0 0 0 0 0 0 0 0 0 0 0 0 0 0 0 0 0 0 0 0 0 0 0 0 0 0 0 0 0 0 0 0 0 0 0 0 0 0 0 0 0 0 0 0 0 0 0 0 0 0 0 0 0 0 0 0 0 0 0 0 0 0 0 0 0 0 0 0 0 0 0 0 0 0 0 0 0 0 0 0 0 0 0 0 0 0 0 0 0 0 0 0 0 0 0 0 0 0 0 0 0 0 0 0 0 0 0 0 0 0 0 0 0 0 0 0 0 0 0 0 0 0 0 0 0 0 0 0 0 0 0 0 0 0 0 0 0 0 0 0 0 0 0 0 0 0 0 0 0 0 0 0 0 0 0 0 0 0 0 0 0 0 0 0 0 0 0 0 0 0 0 0 0 0 0 0 0 0 0 0 0 0 0 0 0 0 0 0 0 0 0 0 0 0 0 0 0 0 0 0 0 0 0 0 0 0 0 0 0 0 0 0 0 0 0 0 0 0 0 0 0 0 0 0 0 0 0 0 0 0 0 0 0 0 0 0 -1 -1 -1 -1 -1 -1 0 0 0 0 -1 -1 -1 -2 -2 -1 -1 -1 -1 -1 -1 -2 -2 -1 -1 -1 -1 -1 0 1 1 1 2 1 1 1 1 1 0 0 0 0 1 0 0 1 1 1 1 1 1 1 1 0 0 0 -2 -2 -2 -1 -1 -2 -3 -2 -2 -3 -3 -2 -2 -2 -2 -1 0 0 -1 -2 -3 -3 -2 -2 -3 -3 -2 -1 0 -1 -1 -1 -2 -1 -2 -1 -1 -1 -1 0 -1 -2 -2 -2 -1 -2 -1 0 0 0 0 0 0 0 -1 0 0 -1 -1 0 0 0 0 0 0 0 0 0 -1 0 1 1 1 1 1 0 0 0 -1 0 1 1 1 1 0 -1 0 0 1 1 0 0 0 1 1 1 0 0 0 0 0 0 1 1 0 1 1 2 1 0 -1 0 0 -1 -1 -1 -1 -1 -1 0 0 0 -1 -1 -1 -1 -1 -1 0 0 0 1 1 1 1 1 0 1 1 0 0 -1 0 1 0 0 0 0 0 0 1 0 0 0 0 0 0 0 1 1 2 1 0 -1 -1 -1 -1 -1 0 0 0 0 -1 -1 0 0 1 1 2 1 0 0 0 -1 0 0 1 1 0 0 -1 -1 0 1 0 -2 -2 -1 -1 -1 0 2 3 4 4 3 2 1 0 0 0 0 0 1 1 1 0 -2 -1 -1 0 0 0 -1 0 1 0 -1 -1 -1 0 2 3 2 1 1 2 2 1 1 1 1 1 0 0 0 0 0 0 0 0 1 1 1 2 0 0 -1 0 0 -1 -1 -1 0 0 0 2 2 0 -1 -1 -1 -1 -1 -1 0 1 1 0 0 0 1 1 0 1 2 1 0 0 0 0 0 0 0 0 0 0 -1 -1 0 -1 -1 -1 0 0 1 0 0 -2 -1 1 3 3 3 4 3 0 -1 0 0 0 -1 -1 -1 0 0 0 -1 -1 0 0 0 0 2 2 0 0 -1 -1 0 1 1 1 0 0 0 0 -1 -1 0 0 -1 0 0 0 1 0 0 0 0 0 -1 0 0 -1 0 1 0 -2 -1 -1 -1 -2 -1 -1 -1 -1 -2 -1 0 1 2 2 2 1 1 1 2 2 1 1 1 2 2 2 1 2 3 3 3 3 3 1 1 1 1 1 0 -1 -1 -1 0 2 3 2 1 2 2 1 0 -1 0 2 3 4 4 4 4 4 3 3 4 4 3 2 3 6 8 9 10 10 10 9 8 7 8 8 9 9 8 8 8 8 8 8 7 8 9 9 9 9 9 9 9 10 10 9 9 8 7 7 7 6 6 5 6 7 5 4 4 6 8 9 9 9 9 11 11 11 12 12 12 12 14 15 15 14 14 13 11 11 11 11 11 10 11 10 11 11 10 10 11 11 10 10 10 10 11 10 10 10 10 10 8 6 6 6 6 6 6 5 4 5 7 7 7 6 6 5 5 5 5 3 2 1 0 1 2 3 3 3 1 0 -1 0 1 4 2 1 0 0 0 0 1 3 4 4 3 2 2 2 2 2 1 1 2 4 3 2 2 2 3 1 1 1 2 3 3 2 2 2 1 0 0 0 1 1 2 3 3 3 3 3 4 4 4 5 5 5 5 5 6 7 8 8 7 8 9 10 10 10 9 9 9 10 11 11 11 12 12 12 12 13 13 12 12 12 13 16 18 17 15 15 15 15 15 15 15 15 15 13 13 13 12 12 11 12 12 11 12 13 13 14 14 15 15 15 15 15 14 13 14 14 15 16 16 15 15 15 16 16 16 16 16 16 17 17 16 15 15 14 13 13 12 10 9 9 10 11 13 14 14 14 15 16 16 16 17 19 21 22 22 22 23 24 25 27 27 26 26 27 28 28 29 29 29 29 30 29 29 29 29 29 28 27 27 27 26 26 25 26 27 27 28 28 28 28 28 29 28 28 28 29 29 29 29 30 31 33 33 34 34 33 35 36 37 37 38 40 42 43 43 42 42 43 44 45 44 43 45 47 48 48 50 51 51 51 53 54 55 55 54 54 55 56 58 60 62 63 63 63 65 65 65 66 66 67 68 67 67 68 68 66 65 64 63 62 62 61 60 59 58 58 57 57 56 54 53 52 52 51 52 51 50 49 48 47 46 46 47 47 46 45 43 42 41 40 38 37 37 36 35 35 34 33 32 32 33 32 32 32 31 30 30 30 31 31 30 30 29 29 30 33 34 34 34 34 34 34 34 34 34 35 36 34 34 34 34 33 34 34 34 34 35 35 35 36 37 35 35 34 35 36 36 35 36 35 33 31 31 32 33 33 33 0 0 0 0 0 0
0 0 0 0 0 0 0 0 0 0 0 0 0 0 0 0 0 0 0 0 0 0 0 0 0 0 0 0 0 0 0 0 0 0 0 0 0 0 0 0 0 0 0 0 0 0 0 0 0 0 0 0 0 0 0 0 0 0 0 0 0 0 0 0 0 0 0 0 0 0 0 0 0 0 0 0 0 0 0 0 0 0 0 0 0 0 0 0 0 0 0 0 0 0 0 0 0 0 0 0 0 0 0 0 0 0 0 0 0 0 0 0 0 0 0 0 0 0 0 0 0 0 0 0 0 0 0 0 0 0 0 0 0 0 0 0 0 0 0 0 0 0 0 0 0 0 0 0 0 0 0 0 0 0 0 0 0 0 0 0 0 0 0 0 0 0 0 0 0 0 0 0 0 0 0 0 0 0 0 0 0 0 0 0 0 0 0 0 0 0 0 0 0 0 0 0 0 0 0 0 0 0 0 0 0 0 0 0 0 0 0 0 0 0 0 0 0 0 0 0 0 0 0 0 0 0 0 0 0 0 0 0 0 0 0 0 0 0 0 0 0 0 0 0 0 0 0 0 0 0 0 0 0 0 0 0 0 -2 -3 -2 -2 -2 -1 0 1 1 0 0 0 -1 0 -1 -1 -1 -1 0 0 0 -1 -2 -2 -1 -1 -1 0 1 1 1 1 1 1 1 0 -1 -1 0 0 -1 -1 -1 0 -1 -2 -1 -1 -1 -1 -1 -1 -1 -1 -1 0 -1 -1 -1 -1 -1 -1 -2 -1 -1 -2 -3 -2 -1 -2 -2 -2 -2 -2 -1 0 -1 -2 -3 -3 -3 -2 -2 -2 -3 -3 -2 -1 -1 0 1 0 -1 -1 -1 -1 -2 -1 -1 -1 -1 -1 -1 0 0 0 0 0 0 -1 -1 0 1 0 0 -1 0 0 0 0 -1 0 1 0 0 1 1 1 1 1 1 2 2 2 2 1 0 -1 1 1 1 1 1 1 1 0 0 -1 0 0 0 0 0 1 1 0 0 0 -1 -1 0 0 1 0 -1 -1 0 -1 0 1 1 0 -1 -1 -1 -1 -1 -1 -1 -1 -1 0 0 0 0 2 2 1 0 0 0 0 1 0 0 0 1 1 0 -1 -1 0 0 0 -1 -1 -1 0 0 0 0 0 0 0 0 0 2 3 0 -2 -1 -1 0 0 0 0 0 0 0 0 0 0 0 0 0 0 1 -1 -2 -1 0 1 0 -1 -1 -1 0 -1 -1 -1 -1 -1 0 0 0 0 -1 -1 0 0 0 0 1 1 -1 -2 -1 0 1 2 2 1 0 -1 -1 -1 -1 0 0 0 0 0 1 0 -1 0 0 0 -2 -2 -2 -1 0 1 1 1 1 0 0 0 0 0 1 1 0 0 0 0 0 1 2 2 1 0 -1 0 0 -1 -1 0 1 1 0 0 0 -1 -1 0 -1 -2 -2 -1 0 0 -1 -2 -2 -1 0 0 -1 0 0 1 1 1 1 1 1 1 0 0 0 0 0 0 0 0 0 0 0 0 1 0 -1 -1 -1 0 1 2 3 4 4 2 0 0 0 0 -1 -1 -1 0 0 1 1 1 0 0 0 0 3 2 0 0 1 0 -1 -1 0 1 1 0 0 0 -1 -1 -1 -1 -1 0 0 -1 0 2 1 -1 -1 -1 0 0 0 1 2 2 1 0 1 1 0 -1 -1 0 0 -1 -1 0 0 -1 -1 -1 -1 -1 0 0 1 1 1 2 1 1 1 1 0 1 2 2 4 5 5 2 0 1 1 0 -1 -1 0 1 2 1 0 1 0 1 1 1 0 0 0 0 1 3 3 3 4 4 4 4 5 4 5 4 5 6 6 7 8 8 9 9 8 7 7 8 9 9 9 8 8 7 8 9 8 8 8 8 9 9 8 8 8 8 8 9 10 8 7 5 6 4 4 3 4 6 6 5 4 4 5 7 8 9 9 12 12 12 11 12 12 12 12 13 12 11 12 12 12 11 10 10 10 11 11 10 9 9 9 10 11 11 12 12 11 10 9 8 9 9 8 9 8 7 7 7 6 5 6 6 6 5 5 5 5 5 5 5 4 3 3 2 2 1 0 2 4 2 1 0 0 0 0 -1 -1 1 0 -1 -1 0 0 0 1 3 4 3 2 2 0 0 -1 -1 -1 -1 0 1 2 1 1 1 1 1 1 1 1 1 1 1 1 2 0 0 0 1 2 2 2 4 5 4 4 4 4 5 5 4 4 5 7 8 8 8 8 8 9 9 10 9 9 9 10 11 11 11 12 12 13 14 14 12 12 12 13 14 15 14 12 14 18 18 16 15 14 14 14 14 13 12 12 12 11 11 11 11 11 11 12 13 13 13 14 14 15 16 16 16 16 16 15 15 15 16 15 16 17 17 17 17 17 17 16 15 15 14 15 15 15 14 14 13 12 11 10 9 10 10 10 10 12 15 15 16 16 17 16 17 20 21 22 23 25 26 27 27 26 26 26 27 27 27 28 29 29 29 28 29 29 28 28 29 29 29 28 26 26 26 25 26 26 27 27 27 27 28 27 27 27 28 29 29 29 30 31 31 31 32 31 31 32 35 37 36 36 37 37 37 38 40 41 42 42 42 42 43 44 45 46 46 45 45 46 47 50 51 51 51 51 51 53 53 55 56 59 59 60 61 63 64 65 66 67 67 68 68 68 68 68 69 70 70 69 68 67 65 65 64 64 64 62 61 60 59 58 56 55 55 53 52 51 50 49 48 47 46 47 47 45 45 45 45 44 43 42 42 41 40 38 37 36 36 36 36 35 35 35 34 32 31 31 32 32 31 30 30 30 30 29 29 30 30 29 30 32 32 32 33 33 34 34 33 34 36 37 37 35 34 34 34 34 35 34 34 34 35 36 36 36 36 36 37 37 37 36 35 36 35 34 34 34 34 35 35 35 0 0 0 0 0 0
0 0 0 0 0 0 0 0 0 0 0 0 0 0 0 0 0 0 0 0 0 0 0 0 0 0 0 0 0 0 0 0 0 0 0 0 0 0 0 0 0 0 0 0 0 0 0 0 0 0 0 0 0 0 0 0 0 0 0 0 0 0 0 0 0 0 0 0 0 0 0 0 0 0 0 0 0 0 0 0 0 0 0 0 0 0 0 0 0 0 0 0 0 0 0 0 0 0 0 0 0 0 0 0 0 0 0 0 0 0 0 0 0 0 0 0 0 0 0 0 0 0 0 0 0 0 0 0 0 0 0 0 0 0 0 0 0 0 0 0 0 0 0 0 0 0 0 0 0 0 0 0 0 0 0 0 0 0 0 0 0 0 0 0 0 0 0 0 0 0 0 0 0 0 0 0 0 0 0 0 0 0 0 0 0 0 0 0 0 0 0 0 0 0 0 0 0 0 0 0 0 0 0 0 0 0 0 0 0 0 0 0 0 0 0 0 0 0 0 0 0 0 0 0 0 0 0 0 0 0 0 0 0 0 0 0 0 0 0 0 0 0 0 0 0 0 0 0 0 0 0 0 0 0 0 0 0 -2 -2 -1 0 0 1 1 1 1 0 -1 -1 0 0 0 -1 -1 -1 -1 -1 -1 -1 -1 -1 -1 0 0 0 0 -1 -1 -1 -1 -2 -1 0 0 -1 -1 -1 -1 0 0 0 0 -1 -1 -1 -1 -2 -2 -2 -2 -2 -2 -2 -1 -1 -1 -1 -1 -1 -1 -1 -1 -1 -1 0 0 -2 -2 -2 -1 -2 -3 -3 -2 -3 -3 -3 -2 -2 -2 -1 -2 -3 -1 0 1 1 0 0 0 0 0 0 0 0 0 0 0 -1 0 0 0 0 0 1 0 -1 -1 0 1 1 0 0 0 0 0 -1 0 0 0 -1 -1 0 1 0 0 0 2 3 4 4 3 2 1 1 0 0 0 0 0 -1 0 1 0 0 0 0 0 0 -1 -2 -3 -2 -2 -1 0 -1 0 0 2 2 2 -1 -2 -1 1 2 2 1 1 1 1 1 0 1 1 0 0 1 0 0 1 1 1 0 0 1 1 1 1 0 0 1 1 1 0 -1 -1 -1 0 -1 -1 -1 -1 0 0 0 1 1 2 1 1 1 0 0 1 0 0 1 2 2 1 0 0 0 1 0 -1 0 0 -1 0 1 1 1 1 0 0 -1 0 -1 -1 -1 0 0 -1 -1 -1 0 -1 -1 0 0 0 0 1 2 1 1 1 1 0 -1 -2 -1 0 0 -1 -1 0 0 0 0 0 0 0 0 0 0 0 0 0 -1 0 0 0 0 0 0 0 1 1 1 1 0 0 0 1 1 1 2 2 1 1 1 0 0 1 1 0 0 0 1 0 0 1 2 2 0 -1 0 0 1 1 1 1 0 0 1 1 1 0 -1 -1 -1 0 0 0 1 1 0 1 1 1 1 1 0 0 0 -1 0 1 1 1 0 0 0 0 0 -1 -2 -2 -1 0 -1 -1 0 0 1 0 -1 -2 -2 -1 0 -1 -2 -1 0 0 1 1 1 1 1 0 -1 0 0 -1 0 2 3 2 1 0 0 0 -1 -1 -2 -1 0 1 1 0 0 -2 -3 -2 -1 -1 -2 -2 0 1 0 0 1 2 0 0 0 0 1 1 1 0 -1 -1 0 0 0 0 0 0 0 1 2 2 0 -1 0 2 1 0 0 1 1 1 0 0 1 2 3 3 2 1 0 0 0 2 2 -1 -1 0 1 -1 -2 -2 -1 -1 0 -1 -1 -2 -1 0 1 1 1 1 1 2 3 4 5 6 6 7 6 7 8 7 7 8 7 6 6 6 7 8 8 8 8 8 8 9 10 10 9 8 8 8 8 7 7 7 6 6 8 8 7 7 8 8 5 5 4 4 4 4 5 6 7 7 8 9 10 10 12 13 12 12 15 15 13 12 11 11 11 11 11 11 11 10 10 10 11 11 10 9 9 10 10 11 12 12 12 11 10 8 7 7 7 7 8 8 6 7 7 7 7 5 4 4 5 5 4 3 3 3 4 3 2 2 1 1 2 2 2 2 2 1 -1 -2 -2 -1 -1 -1 1 2 0 0 0 0 2 6 8 6 2 1 0 0 0 -1 -1 -1 0 1 2 2 2 1 1 0 0 0 0 0 0 0 0 0 0 0 0 1 1 2 2 2 2 3 3 4 5 5 6 5 5 5 6 6 7 8 7 7 8 10 10 10 9 9 10 11 12 11 11 11 12 12 11 12 12 12 14 15 15 14 13 12 13 14 15 16 16 15 15 15 13 12 11 11 11 10 10 11 11 12 13 12 11 12 13 14 15 15 15 16 16 16 17 18 18 17 17 16 16 16 16 16 16 17 17 17 16 15 14 13 13 13 12 12 11 12 12 11 13 14 16 15 13 13 15 16 17 18 19 19 20 22 23 23 24 25 25 26 26 26 27 27 27 27 26 26 28 27 27 27 27 28 29 28 29 30 29 29 27 26 26 26 26 26 27 28 29 29 29 28 28 28 29 29 30 30 31 32 32 32 33 33 33 34 35 35 36 37 38 39 39 38 39 41 43 43 43 42 43 45 46 47 47 47 47 48 51 55 56 54 53 53 53 52 52 55 58 59 60 61 62 63 64 66 67 68 69 70 70 70 69 69 69 70 71 70 69 66 64 64 65 65 64 63 63 61 60 59 57 55 55 54 52 52 51 49 48 47 46 46 45 45 44 44 44 44 44 42 40 38 37 37 36 35 35 35 35 34 34 34 33 32 31 31 31 32 32 31 31 31 31 32 32 32 31 30 29 30 30 31 32 33 32 32 33 34 36 36 35 34 34 34 34 34 34 34 35 35 36 36 36 36 36 36 36 35 35 35 34 33 34 35 36 35 35 34 34 35 0 0 0 0 0 0
0 0 0 0 0 0 0 0 0 0 0 0 0 0 0 0 0 0 0 0 0 0 0 0 0 0 0 0 0 0 0 0 0 0 0 0 0 0 0 0 0 0 0 0 0 0 0 0 0 0 0 0 0 0 0 0 0 0 0 0 0 0 0 0 0 0 0 0 0 0 0 0 0 0 0 0 0 0 0 0 0 0 0 0 0 0 0 0 0 0 0 0 0 0 0 0 0 0 0 0 0 0 0 0 0 0 0 0 0 0 0 0 0 0 0 0 0 0 0 0 0 0 0 0 0 0 0 0 0 0 0 0 0 0 0 0 0 0 0 0 0 0 0 0 0 0 0 0 0 0 0 0 0 0 0 0 0 0 0 0 0 0 0 0 0 0 0 0 0 0 0 0 0 0 0 0 0 0 0 0 0 0 0 0 0 0 0 0 0 0 0 0 0 0 0 0 0 0 0 0 0 0 0 0 0 0 0 0 0 0 0 0 0 0 0 0 0 0 0 0 0 0 0 0 0 0 0 0 0 0 0 0 0 0 0 0 0 0 0 0 0 0 0 0 0 0 0 0 0 0 0 0 0 0 0 0 -1 -2 -1 0 1 2 3 2 1 0 -1 -2 -2 -2 -1 -1 -1 0 -1 -1 -1 -1 -1 0 0 0 0 0 -1 -1 -2 -2 -2 -2 -1 -1 -1 -1 -1 0 0 -1 -2 -2 -3 -3 -2 -1 -1 -1 -1 -2 -2 -2 -2 -2 -2 -2 -1 -1 -1 -1 -1 -1 -2 -2 -2 -1 0 0 0 0 0 -1 -2 -2 -3 -3 -3 -3 -1 -1 -1 -1 -1 -1 -2 -1 0 0 0 -1 0 1 0 0 0 0 0 0 0 0 0 -1 -1 -1 -1 -1 0 1 1 0 0 1 0 0 -1 0 0 0 1 2 1 1 0 0 0 0 0 0 0 0 1 2 3 2 2 1 1 0 0 0 0 0 -1 0 0 0 1 1 0 0 0 1 0 -1 0 0 -1 0 1 0 0 1 1 2 1 0 0 1 1 1 1 1 1 1 0 -1 -1 -2 -2 -1 0 1 0 -1 -1 -1 -2 -1 0 0 1 1 1 1 0 -1 -1 -2 -1 0 0 0 0 0 0 0 0 1 1 0 1 0 0 2 3 2 -1 -1 0 1 2 3 2 1 0 0 1 1 1 1 0 0 0 1 1 0 -1 0 1 1 0 1 0 0 -1 -2 -2 -1 0 1 -1 0 0 -1 -1 0 1 -1 -2 -2 -1 -1 -1 0 0 0 0 0 1 0 0 1 0 -1 -1 -1 -1 -1 -1 -1 -1 -2 -1 0 0 0 0 1 1 1 0 0 1 2 2 1 -2 -2 0 1 1 0 0 1 0 1 2 1 0 1 1 -1 -1 -1 1 2 2 1 0 0 0 -1 -1 -1 0 1 2 2 2 3 1 -1 -1 -1 0 0 0 0 1 0 0 0 0 0 1 0 0 0 0 0 -1 -2 -2 0 1 1 0 -1 -1 -1 0 -1 -2 -1 -1 0 0 1 1 1 0 0 0 0 0 0 -1 -2 -2 -1 -1 0 1 0 -1 0 0 -1 -1 -1 1 1 1 0 1 0 -1 -2 -3 -1 0 0 -1 -1 -1 -1 -1 -1 0 0 -1 -2 -1 -1 -3 -2 0 1 0 1 1 0 -1 -1 -2 -2 1 1 1 0 0 0 0 -1 -1 -1 1 3 3 4 2 0 -1 0 0 0 -1 0 1 0 0 0 1 0 0 1 1 1 0 -1 -1 -1 -1 -2 -2 -3 -3 -2 0 0 -1 -1 -1 -1 0 0 0 0 0 0 1 1 3 3 3 3 3 3 5 6 7 7 7 7 8 6 6 5 6 6 6 7 7 7 7 9 8 8 8 9 9 10 9 8 7 6 7 7 6 6 6 5 4 5 6 7 5 5 3 3 4 5 6 6 7 8 9 9 9 10 12 12 12 12 12 11 12 12 13 12 11 11 11 11 11 11 10 9 9 9 10 10 9 9 10 9 9 10 9 9 9 9 9 9 8 7 7 6 6 7 7 7 7 6 7 6 5 5 6 5 4 3 4 4 4 3 2 2 2 2 2 1 0 0 0 0 -1 -1 0 0 -2 -3 -3 -2 0 0 0 1 4 8 10 8 3 1 0 0 0 -1 -1 -1 -1 -1 0 1 1 2 1 -1 -2 -1 -1 -1 -2 -2 -1 0 0 0 0 1 2 2 2 3 5 7 8 9 8 6 5 5 5 5 5 6 7 7 6 7 9 10 10 11 11 11 11 11 12 11 11 11 12 12 10 11 12 12 13 14 14 13 13 14 15 15 15 15 15 15 16 16 15 13 12 11 10 10 10 10 10 10 11 12 12 13 14 15 16 16 16 16 16 17 16 16 17 16 16 16 15 16 16 16 16 16 16 15 15 14 13 13 14 13 12 12 11 11 10 10 12 14 19 21 20 17 17 17 18 18 19 20 21 21 22 23 25 26 26 26 26 27 26 25 26 27 27 27 28 28 28 27 28 29 29 28 29 29 27 27 26 25 25 25 26 26 26 27 28 30 30 30 30 30 29 30 30 31 31 32 32 33 35 35 36 36 36 37 38 38 38 39 39 39 40 41 43 44 45 46 47 48 49 52 51 50 50 51 53 56 57 57 56 55 55 55 55 56 58 59 60 62 64 66 67 68 69 69 70 71 72 72 72 71 71 70 69 68 68 66 65 63 64 64 64 63 63 62 61 60 59 57 55 53 52 52 50 49 48 48 47 46 44 43 43 42 42 41 42 42 40 39 39 38 36 35 34 34 34 33 33 32 32 32 32 31 31 32 32 31 31 30 31 32 31 30 29 28 29 29 29 29 31 32 33 32 33 34 34 34 35 34 34 34 33 32 32 32 33 34 35 35 36 35 35 35 34 34 34 34 34 34 34 34 34 35 35 34 34 35 0 0 0 0 0 0
0 0 0 0 0 0 0 0 0 0 0 0 0 0 0 0 0 0 0 0 0 0 0 0 0 0 0 0 0 0 0 0 0 0 0 0 0 0 0 0 0 0 0 0 0 0 0 0 0 0 0 0 0 0 0 0 0 0 0 0 0 0 0 0 0 0 0 0 0 0 0 0 0 0 0 0 0 0 0 0 0 0 0 0 0 0 0 0 0 0 0 0 0 0 0 0 0 0 0 0 0 0 0 0 0 0 0 0 0 0 0 0 0 0 0 0 0 0 0 0 0 0 0 0 0 0 0 0 0 0 0 0 0 0 0 0 0 0 0 0 0 0 0 0 0 0 0 0 0 0 0 0 0 0 0 0 0 0 0 0 0 0 0 0 0 0 0 0 0 0 0 0 0 0 0 0 0 0 0 0 0 0 0 0 0 0 0 0 0 0 0 0 0 0 0 0 0 0 0 0 0 0 0 0 0 0 0 0 0 0 0 0 0 0 0 0 0 0 0 0 0 0 0 0 0 0 0 0 0 0 0 0 0 0 0 0 0 0 0 0 0 0 0 0 0 0 0 0 0 0 0 0 0 0 0 0 -2 -1 -1 -1 0 2 3 2 1 0 -1 -1 -2 -2 -1 -1 -1 -1 -1 -1 -1 -1 -1 0 1 1 0 -1 -1 -1 -1 -1 -1 -1 -1 -1 -1 -2 -2 -1 0 0 0 -2 -2 -2 -1 -1 -1 -1 -1 -2 -2 -1 -2 -2 -3 -2 -1 -1 -1 -1 -1 -1 -2 -2 -2 -2 -2 -1 -1 -1 -1 -1 -2 -2 -2 -2 -2 -2 -2 -1 -1 -1 -1 -2 -2 -1 0 0 0 -1 0 1 0 0 0 0 -1 -1 0 1 0 -1 -1 -1 -1 -1 0 0 0 0 -1 0 0 -1 -2 0 0 1 2 2 2 2 1 1 1 1 1 1 0 -1 -1 1 2 2 2 1 0 0 0 0 0 0 0 0 1 1 2 1 0 0 0 1 1 0 0 -1 0 0 0 0 -1 0 0 0 1 1 1 0 1 1 1 1 1 1 0 0 -1 -1 -1 0 0 0 0 0 -1 -1 -2 -2 -1 -1 0 1 1 0 -1 -1 -1 -1 0 1 1 0 0 0 0 0 0 0 0 1 1 0 -1 1 3 1 -2 -3 0 1 1 2 1 0 0 0 0 1 1 1 0 0 0 0 0 -1 -1 -2 0 0 0 1 1 1 0 -1 -2 -1 0 1 0 0 -1 -1 0 1 1 0 -1 -1 -1 -1 -1 -1 -1 -2 -2 -1 0 0 1 1 1 0 -2 -1 0 0 0 -1 0 0 -1 0 0 0 0 1 2 2 1 0 1 1 1 0 -1 -2 -1 1 1 0 0 1 0 0 1 1 0 0 0 -2 -2 -1 0 1 2 2 1 0 0 0 0 0 0 0 1 2 2 2 1 -1 -1 -1 1 1 1 1 1 0 -1 -1 -1 0 1 0 0 0 1 1 0 -1 -1 0 0 1 1 0 0 -1 -1 -1 -1 0 0 0 1 1 2 2 1 1 0 0 1 0 -1 -1 -1 -1 -1 -1 0 -1 -1 -1 -1 -1 -1 0 1 1 1 0 0 -1 0 -1 -3 -1 1 0 -1 -1 -1 -1 -1 -1 -1 -1 -1 -1 -1 0 -1 -1 0 -1 -2 -1 0 0 0 -1 -2 -2 -1 -1 0 0 0 1 1 0 0 0 1 3 3 3 3 0 -1 -1 0 0 0 0 1 0 0 0 -1 -1 -1 0 0 0 0 -1 -1 -1 -1 -1 -2 -3 -2 -1 0 0 0 0 -1 -1 0 1 1 0 0 0 0 1 3 3 3 3 3 3 4 5 6 7 7 8 7 6 6 5 5 6 6 6 7 7 8 9 8 8 8 8 8 9 8 7 7 6 6 7 7 7 5 4 3 5 7 8 6 5 5 5 4 5 6 7 7 7 8 10 10 11 13 13 12 11 12 12 11 11 12 12 11 11 11 12 12 10 9 9 9 10 11 10 9 9 9 9 9 10 10 8 8 8 7 7 7 6 6 6 6 7 8 7 7 6 6 5 5 4 5 5 5 4 4 4 4 3 2 3 2 3 3 2 0 -1 -1 -1 -1 0 0 -1 -2 -3 -3 -2 0 0 0 0 2 6 8 6 3 1 0 0 0 -1 -1 -1 -1 -1 -1 0 1 2 1 -1 -1 -1 -1 -1 -2 -2 -1 0 -1 -1 0 1 2 3 3 3 5 7 10 11 10 7 4 4 5 5 5 6 6 6 6 7 9 9 10 11 13 13 12 11 11 10 10 11 12 12 10 10 11 11 12 13 14 14 13 14 15 15 15 15 15 16 16 15 15 13 12 11 10 9 9 9 9 10 11 12 13 14 15 16 16 17 17 17 17 18 17 16 17 16 16 16 15 16 16 16 15 15 15 15 14 14 13 12 13 13 13 13 12 11 10 10 11 12 16 19 19 17 17 17 18 18 19 20 20 20 22 24 26 27 27 27 27 26 25 24 25 26 26 26 27 26 26 26 27 28 28 27 28 28 27 26 26 26 26 26 26 26 26 27 28 28 29 30 30 30 30 30 31 30 31 32 33 34 36 36 36 36 37 38 38 39 39 38 38 39 40 41 42 43 45 48 51 53 54 54 53 52 52 52 53 56 57 58 58 57 56 57 57 56 57 58 59 61 64 66 68 70 71 71 71 71 72 72 72 71 70 69 68 67 67 66 65 63 63 63 63 64 63 62 61 60 59 57 55 53 52 52 51 49 48 48 47 46 45 43 42 42 42 41 42 41 40 39 38 38 37 35 35 35 35 35 33 32 32 32 32 33 32 33 33 33 32 31 31 32 31 30 29 29 29 29 29 29 30 31 32 32 33 34 33 34 35 35 34 34 33 32 31 32 32 33 34 35 35 35 35 35 35 34 34 34 34 35 35 34 33 33 33 33 34 35 0 0 0 0 0 0
0 0 0 0 0 0 0 0 0 0 0 0 0 0 0 0 0 0 0 0 0 0 0 0 0 0 0 0 0 0 0 0 0 0 0 0 0 0 0 0 0 0 0 0 0 0 0 0 0 0 0 0 0 0 0 0 0 0 0 0 0 0 0 0 0 0 0 0 0 0 0 0 0 0 0 0 0 0 0 0 0 0 0 0 0 0 0 0 0 0 0 0 0 0 0 0 0 0 0 0 0 0 0 0 0 0 0 0 0 0 0 0 0 0 0 0 0 0 0 0 0 0 0 0 0 0 0 0 0 0 0 0 0 0 0 0 0 0 0 0 0 0 0 0 0 0 0 0 0 0 0 0 0 0 0 0 0 0 0 0 0 0 0 0 0 0 0 0 0 0 0 0 0 0 0 0 0 0 0 0 0 0 0 0 0 0 0 0 0 0 0 0 0 0 0 0 0 0 0 0 0 0 0 0 0 0 0 0 0 0 0 0 0 0 0 0 0 0 0 0 0 0 0 0 0 0 0 0 0 0 0 0 0 0 0 0 0 0 0 0 0 0 0 0 0 0 0 0 0 0 0 0 0 0 0 0 0 -1 -1 0 0 1 1 0 0 0 -1 -1 -1 -1 -1 -1 -1 -1 -1 -1 -1 -1 0 1 0 0 0 -1 0 -1 -1 -1 -1 -1 -1 -1 -1 -2 -2 -2 -2 -2 0 -1 -1 0 0 -1 -2 -2 -2 -2 -2 -1 -2 -2 -2 -2 -1 -1 -1 -1 -1 -1 -1 -1 -1 -1 0 0 0 0 0 -1 -1 -2 -1 -1 -1 -1 -1 -1 -2 -2 -3 -2 -1 -1 -1 -1 0 -1 0 0 -1 -1 -1 -1 -1 -1 0 0 0 0 0 0 0 0 0 0 0 0 -1 0 0 -1 -1 0 0 0 0 1 2 1 1 1 0 0 0 0 -1 -2 -1 0 1 1 1 0 -2 -2 -1 -1 -1 0 1 0 -1 0 1 1 0 0 0 0 0 -1 0 0 0 0 0 2 2 2 2 1 0 0 0 1 1 0 -1 -1 -1 -1 0 1 1 0 0 0 -1 0 0 -1 1 1 1 0 0 0 -1 0 1 1 0 0 0 -1 -1 -1 0 0 1 2 1 0 0 0 0 0 0 0 -1 0 1 1 -1 -1 -1 1 1 1 1 1 0 0 1 1 1 0 0 0 0 0 1 1 1 1 -1 -2 -1 0 2 2 2 1 0 -1 0 0 0 -1 -1 0 0 1 1 0 -1 -1 0 0 -1 -2 -2 -1 -1 -1 0 1 1 1 0 -1 -1 -1 0 0 0 0 0 0 0 0 0 1 1 0 -1 -1 -1 0 1 0 -1 -2 -2 -1 -1 -1 -1 -1 0 1 0 0 1 -1 0 1 0 0 0 -1 0 -1 0 1 1 1 1 0 0 0 0 0 0 0 0 1 1 -1 -1 -1 1 1 1 1 2 1 1 1 1 1 1 1 1 1 2 1 0 -1 0 1 2 2 1 0 0 -1 -2 -1 0 -1 -1 -1 1 1 1 1 2 2 2 1 1 0 0 0 0 0 -1 -1 -1 -1 -1 0 0 -1 -1 0 0 -1 -1 0 1 0 -1 0 -1 -1 -1 0 0 0 0 0 0 0 0 0 0 -1 0 1 0 -1 -2 -1 -1 -1 -1 -2 -1 -1 -2 -2 -2 -2 -1 -1 -1 0 0 0 -1 0 0 0 1 3 4 2 0 -1 -1 0 0 0 0 -1 -1 -1 -1 -1 0 1 1 1 0 -1 -2 -2 0 1 2 0 -1 -1 -1 -1 0 0 0 0 0 0 0 0 0 0 0 1 3 3 3 3 2 3 5 6 7 6 6 7 6 6 6 6 5 5 4 4 4 5 6 7 8 8 9 8 7 7 7 6 6 5 4 3 2 2 3 4 6 7 7 6 5 5 6 6 6 7 7 7 7 7 8 10 11 12 13 13 13 11 11 11 10 10 10 10 11 11 11 11 10 10 10 10 10 10 10 9 10 9 10 9 9 9 9 9 8 6 5 5 5 4 4 5 6 5 4 4 4 5 5 4 3 3 4 5 5 4 3 3 2 2 3 2 2 3 3 2 1 1 1 1 0 -1 -1 -1 -1 -1 -1 -1 0 0 0 0 2 4 8 8 4 1 -1 -1 0 0 0 -1 -1 -1 0 1 1 -1 0 -1 -2 -2 -2 -2 -1 -2 -2 -1 -1 0 0 0 1 3 3 3 2 3 5 7 6 6 5 4 4 4 4 4 5 6 7 7 7 8 8 9 10 10 11 10 10 9 8 9 10 11 10 10 10 10 11 12 13 14 15 15 14 14 15 16 16 17 15 13 13 14 13 11 10 9 10 10 10 11 12 12 12 14 15 15 16 16 17 18 18 18 18 17 17 17 16 16 16 16 16 16 15 15 16 15 14 14 13 12 12 12 12 12 11 11 11 12 12 11 14 16 16 15 16 17 19 20 21 21 21 21 22 24 26 28 28 28 28 27 26 25 25 25 25 24 24 24 24 24 26 27 27 25 24 25 25 25 25 24 24 24 24 26 27 27 26 27 28 30 30 30 31 31 32 32 33 32 33 34 36 37 37 38 39 39 40 42 42 41 40 39 41 42 42 43 47 54 59 61 61 59 57 56 54 54 55 57 60 63 65 65 64 63 64 65 64 64 64 64 64 63 65 66 67 69 71 72 74 74 73 72 71 70 68 67 65 64 62 61 61 61 61 61 62 61 60 59 57 57 57 55 54 54 53 52 51 49 48 48 46 44 42 42 42 42 42 42 41 40 40 38 37 37 36 36 36 35 35 35 34 33 33 35 35 33 33 33 33 32 31 31 31 31 30 30 31 30 30 30 29 29 29 30 31 32 32 32 32 32 32 32 32 31 31 31 31 32 33 34 35 36 35 35 35 35 34 33 32 33 34 34 33 32 32 33 33 33 0 0 0 0 0 0
0 0 0 0 0 0 0 0 0 0 0 0 0 0 0 0 0 0 0 0 0 0 0 0 0 0 0 0 0 0 0 0 0 0 0 0 0 0 0 0 0 0 0 0 0 0 0 0 0 0 0 0 0 0 0 0 0 0 0 0 0 0 0 0 0 0 0 0 0 0 0 0 0 0 0 0 0 0 0 0 0 0 0 0 0 0 0 0 0 0 0 0 0 0 0 0 0 0 0 0 0 0 0 0 0 0 0 0 0 0 0 0 0 0 0 0 0 0 0 0 0 0 0 0 0 0 0 0 0 0 0 0 0 0 0 0 0 0 0 0 0 0 0 0 0 0 0 0 0 0 0 0 0 0 0 0 0 0 0 0 0 0 0 0 0 0 0 0 0 0 0 0 0 0 0 0 0 0 0 0 0 0 0 0 0 0 0 0 0 0 0 0 0 0 0 0 0 0 0 0 0 0 0 0 0 0 0 0 0 0 0 0 0 0 0 0 0 0 0 0 0 0 0 0 0 0 0 0 0 0 0 0 0 0 0 0 0 0 0 0 0 0 0 0 0 0 0 0 0 0 0 0 0 0 0 -2 -1 -1 0 1 1 0 0 -1 -1 -1 -1 0 -1 -1 -2 -2 -2 -2 -1 -1 -1 -1 -1 0 -1 0 -1 -2 -2 -1 -1 -2 -2 -2 -1 -1 -1 -1 -1 -2 -2 -2 1 1 0 0 -1 0 -1 -1 -1 0 0 -1 -2 -2 -2 -2 -1 -1 -1 -2 -2 -1 -1 -1 -1 -1 0 0 0 -1 -1 0 -1 -2 -2 -1 -1 -1 -2 -3 -3 -3 -2 -1 -1 -2 -1 0 0 -2 -2 -1 -1 -1 -1 -1 0 -1 -1 0 1 0 0 -1 -1 0 0 0 0 0 1 0 0 0 0 0 0 0 0 0 0 0 0 0 -1 -1 -1 -1 -1 -1 0 0 0 0 0 1 0 -1 -1 -1 -1 -2 -1 -2 -1 0 1 1 0 0 0 -1 0 0 -1 -1 0 0 -1 -1 -1 -1 -1 0 -1 0 0 0 0 -1 -1 0 1 1 0 0 0 0 1 1 0 0 0 -1 0 0 0 1 2 1 0 0 1 1 0 0 0 0 0 1 1 1 2 3 3 1 -1 -1 -1 -1 0 1 1 0 0 -1 -1 0 1 1 1 0 0 1 2 2 2 1 0 1 2 2 2 0 -1 0 1 1 0 -1 1 1 1 1 1 1 2 1 1 1 1 2 0 0 0 0 1 2 1 0 0 0 0 0 0 0 0 0 -1 -1 -1 -1 -1 -1 -1 -1 0 0 0 1 0 0 0 0 0 0 0 1 0 0 0 1 1 2 1 0 0 1 0 1 1 0 0 1 1 0 0 -2 -1 1 1 -1 -1 -2 -2 -2 0 1 2 2 1 0 -1 -1 0 1 0 0 1 1 0 -1 0 0 0 0 0 0 0 0 0 -1 -1 0 -1 -2 -2 0 1 1 1 1 2 2 2 1 1 0 0 0 -1 -1 0 0 0 -1 -1 -1 0 0 1 1 3 4 3 2 2 1 0 0 0 0 1 0 -1 -1 -2 -3 -2 -1 -1 -2 -2 -1 0 0 0 -1 0 0 0 1 1 0 0 0 0 0 0 -1 -2 -1 0 0 -1 -1 -1 -1 -2 -1 0 -1 -2 -2 -2 -2 -1 -1 0 -1 -2 -1 -1 -1 -2 -3 -2 0 1 2 3 3 2 1 0 0 -1 -1 -1 0 0 1 0 0 1 1 1 0 0 0 -1 -1 -2 -2 -1 -1 0 0 1 1 0 0 -1 -1 -2 -2 -2 -1 0 0 1 2 3 2 2 2 3 3 5 7 8 7 6 6 5 5 5 6 4 3 3 3 4 5 5 6 7 8 9 9 7 5 4 5 5 5 4 5 3 3 2 3 4 5 5 5 5 7 6 6 6 7 7 7 7 7 7 9 11 12 12 12 10 10 10 9 9 9 10 10 9 9 10 11 12 11 10 10 10 11 12 12 11 10 10 10 10 10 10 10 9 7 5 4 4 3 3 4 5 5 3 4 5 6 4 3 5 7 8 8 7 6 5 5 4 4 4 3 3 2 2 2 2 1 1 1 1 0 0 0 0 0 0 0 -1 -1 -1 -1 1 2 2 2 0 -1 -1 0 0 0 0 0 0 0 -1 0 -1 -2 -2 -3 -3 -3 -3 -3 -2 -3 -3 -2 -1 0 0 0 -1 0 1 2 1 0 0 1 1 1 2 2 3 3 4 4 4 5 6 6 7 7 7 7 8 8 9 9 8 8 8 7 7 7 8 10 10 10 11 12 12 12 13 14 15 15 15 17 17 16 14 13 13 13 12 11 9 8 9 11 11 10 11 13 14 15 16 16 16 17 17 18 18 18 18 18 18 17 17 16 16 16 15 14 13 12 13 12 12 11 11 12 11 11 12 12 11 11 13 14 13 13 14 16 17 17 18 18 20 22 24 24 23 23 24 26 26 27 27 27 27 25 23 22 22 22 22 22 22 23 23 23 23 23 22 23 23 24 24 25 26 24 24 23 24 25 25 26 27 28 29 29 29 30 31 32 32 33 34 35 37 37 37 39 39 39 41 45 49 52 51 48 44 42 41 42 45 46 49 53 58 61 61 61 61 62 60 57 58 60 62 64 66 65 65 65 67 69 71 72 70 66 64 64 65 66 67 68 69 71 73 73 73 71 70 69 69 68 65 63 61 59 59 59 60 60 59 59 59 59 58 58 57 56 55 55 54 53 51 50 49 48 47 45 43 42 42 42 42 40 38 37 37 38 38 37 35 34 34 35 35 35 34 33 33 33 33 32 31 32 32 33 32 32 33 32 31 31 32 30 29 29 29 28 28 28 30 31 31 30 31 32 32 32 31 30 30 31 32 33 33 32 34 36 36 36 36 35 33 32 32 32 32 32 32 32 33 34 35 34 0 0 0 0 0 0
0 0 0 0 0 0 0 0 0 0 0 0 0 0 0 0 0 0 0 0 0 0 0 0 0 0 0 0 0 0 0 0 0 0 0 0 0 0 0 0 0 0 0 0 0 0 0 0 0 0 0 0 0 0 0 0 0 0 0 0 0 0 0 0 0 0 0 0 0 0 0 0 0 0 0 0 0 0 0 0 0 0 0 0 0 0 0 0 0 0 0 0 0 0 0 0 0 0 0 0 0 0 0 0 0 0 0 0 0 0 0 0 0 0 0 0 0 0 0 0 0 0 0 0 0 0 0 0 0 0 0 0 0 0 0 0 0 0 0 0 0 0 0 0 0 0 0 0 0 0 0 0 0 0 0 0 0 0 0 0 0 0 0 0 0 0 0 0 0 0 0 0 0 0 0 0 0 0 0 0 0 0 0 0 0 0 0 0 0 0 0 0 0 0 0 0 0 0 0 0 0 0 0 0 0 0 0 0 0 0 0 0 0 0 0 0 0 0 0 0 0 0 0 0 0 0 0 0 0 0 0 0 0 0 0 0 0 0 0 0 0 0 0 0 0 0 0 0 0 0 0 0 0 -3 -3 -3 -2 -1 1 2 1 -1 -2 -2 -1 -1 -1 -1 -1 -1 -1 -2 -1 -1 0 0 0 0 -1 -1 -1 -1 -1 -1 -1 -1 -1 -1 -1 -1 -1 -2 -2 -2 -1 -1 -1 -1 0 0 -1 -2 -2 -1 -2 -2 -1 -1 -1 -2 -1 -1 -1 -2 -1 -1 -1 -2 -2 -1 -1 -2 -1 0 0 0 0 0 0 0 0 -1 -2 -1 -1 -1 -1 -2 -3 -3 -2 -1 -1 -1 -2 -2 -1 -1 -1 0 0 0 0 -1 -1 -1 0 0 0 0 0 1 1 1 0 -1 0 -1 -1 -1 -1 0 1 1 1 1 1 0 0 0 0 -1 0 0 0 0 0 0 0 0 0 -1 -2 -1 -1 -1 0 0 0 1 0 -1 -1 0 0 0 -1 -1 -1 -1 -1 0 -1 -2 -2 -2 -2 -2 -1 -1 -1 -1 0 0 0 -1 -1 -1 -1 -1 -1 -1 -1 -1 0 1 1 1 -1 -1 0 0 1 1 1 1 0 1 1 2 1 0 0 0 0 0 0 1 0 -1 0 0 0 0 -1 -1 -1 -1 0 1 0 0 0 -1 -1 -2 -1 0 0 1 2 2 1 0 0 0 0 1 0 0 1 1 0 1 1 1 0 -1 0 1 1 1 0 -1 -1 0 0 1 1 1 1 1 1 1 0 -1 0 1 0 0 0 1 1 0 0 0 0 -1 -1 -1 -1 0 1 1 1 1 0 0 0 -1 -1 -1 0 0 0 0 0 0 1 1 0 0 0 1 1 0 0 0 0 0 -1 -1 0 0 0 0 0 0 0 0 0 0 -1 0 0 1 1 1 0 -1 -1 -1 0 0 0 0 1 1 0 -1 0 1 1 1 0 1 2 1 0 -1 0 0 0 0 0 0 0 0 1 1 0 0 0 0 0 0 0 0 -1 -1 -2 -1 -1 -1 0 -1 0 0 0 2 3 4 5 5 4 1 0 0 1 1 1 1 0 -1 -1 -1 -2 -2 0 0 0 -1 -1 0 -1 -1 0 0 0 0 0 0 0 0 0 0 -1 0 0 0 0 -1 -1 -1 -2 -2 -1 0 0 -1 -1 -1 -1 0 0 0 0 -1 -2 -1 -1 -1 -3 -3 -1 2 2 3 2 1 0 0 0 -1 -1 0 0 0 0 0 0 0 0 0 0 0 0 0 -1 -1 -2 0 2 1 0 -1 -1 0 1 1 -1 -1 -1 0 0 -1 -1 0 1 2 3 4 4 5 4 3 5 7 8 8 6 6 5 4 4 4 4 3 2 3 4 4 5 5 8 9 10 10 6 4 4 4 4 3 3 4 3 3 2 3 4 5 5 5 2 4 6 6 7 8 7 7 7 7 8 8 8 10 11 11 11 11 11 10 9 9 10 10 10 10 10 11 13 12 11 11 11 12 12 11 10 10 11 11 11 9 8 7 7 7 6 6 5 4 4 5 5 5 6 7 7 6 5 5 4 5 6 5 5 5 4 4 4 4 5 4 4 4 4 3 3 3 2 2 1 1 1 -1 -2 -3 -1 0 -1 -1 -2 -2 -2 -1 -1 -1 -2 -1 0 1 0 0 0 0 0 1 0 0 0 -1 -1 -2 -1 0 0 0 -1 -2 -3 -2 -1 0 1 1 0 -1 -1 0 -1 -1 -2 -2 -2 -1 0 0 0 0 1 2 2 3 3 4 5 5 5 6 6 6 7 7 7 7 6 7 7 7 9 10 11 11 12 12 12 11 11 12 13 15 14 15 15 14 13 13 13 11 10 9 9 9 10 12 12 13 13 14 15 16 16 17 18 18 17 17 17 18 18 18 18 18 17 17 15 14 12 11 10 10 11 11 11 10 11 11 11 11 11 11 11 10 12 14 15 15 16 16 16 18 19 19 20 22 23 23 24 24 26 27 27 26 26 25 24 25 23 21 20 20 21 21 22 22 22 22 22 22 22 23 24 25 25 25 25 24 24 24 26 27 27 26 27 29 30 30 31 31 31 31 32 34 37 38 38 37 40 43 48 51 57 60 59 58 57 58 57 54 53 52 53 54 56 59 63 66 67 68 71 72 73 72 72 70 67 65 65 66 67 66 66 68 71 71 69 65 62 62 64 66 68 70 70 71 73 73 73 71 70 69 68 67 65 63 60 58 59 59 59 58 57 56 56 56 55 55 54 54 53 53 52 52 52 51 50 50 48 45 43 42 42 41 40 38 37 37 38 38 37 36 35 36 37 37 36 36 36 36 35 35 34 33 33 34 34 33 32 32 32 32 33 34 33 32 30 29 28 28 28 29 30 30 30 30 31 32 32 32 31 30 31 31 30 29 30 32 32 34 35 35 34 34 34 33 32 31 32 32 31 31 31 32 33 33 0 0 0 0 0 0
0 0 0 0 0 0 0 0 0 0 0 0 0 0 0 0 0 0 0 0 0 0 0 0 0 0 0 0 0 0 0 0 0 0 0 0 0 0 0 0 0 0 0 0 0 0 0 0 0 0 0 0 0 0 0 0 0 0 0 0 0 0 0 0 0 0 0 0 0 0 0 0 0 0 0 0 0 0 0 0 0 0 0 0 0 0 0 0 0 0 0 0 0 0 0 0 0 0 0 0 0 0 0 0 0 0 0 0 0 0 0 0 0 0 0 0 0 0 0 0 0 0 0 0 0 0 0 0 0 0 0 0 0 0 0 0 0 0 0 0 0 0 0 0 0 0 0 0 0 0 0 0 0 0 0 0 0 0 0 0 0 0 0 0 0 0 0 0 0 0 0 0 0 0 0 0 0 0 0 0 0 0 0 0 0 0 0 0 0 0 0 0 0 0 0 0 0 0 0 0 0 0 0 0 0 0 0 0 0 0 0 0 0 0 0 0 0 0 0 0 0 0 0 0 0 0 0 0 0 0 0 0 0 0 0 0 0 0 0 0 0 0 0 0 0 0 0 0 0 0 0 0 0 -1 -1 0 -1 -1 0 0 -1 -1 0 0 0 0 -1 -1 -1 -1 -1 -1 0 1 1 1 0 0 -1 -1 -1 -1 0 0 0 0 -1 -1 -1 -1 -1 -1 -1 -2 -2 -2 -1 1 1 0 -1 -2 -3 -2 -1 -1 -1 -1 -2 -1 -1 -1 -1 -1 -1 -2 -2 -2 -2 -1 -1 -1 -1 0 0 -1 -1 -1 -1 -2 -1 -1 -2 -1 0 0 -1 -2 -3 -3 -3 -3 -2 -1 -1 -2 -1 -1 -1 -1 -1 -1 -1 -1 -2 -2 -1 -1 -1 0 0 0 0 0 0 0 0 -1 -1 -2 -1 0 1 1 1 1 1 1 0 0 0 0 0 0 0 0 0 0 0 0 0 0 -1 -1 -1 -1 0 0 1 2 1 0 -1 -1 -2 -1 0 0 0 -1 0 1 1 0 -1 -2 -3 -3 -1 -1 -1 -2 -2 -2 -1 0 1 1 0 0 -1 -1 -1 0 0 0 1 0 -1 -1 -1 0 1 1 1 0 0 0 0 1 1 0 0 0 0 1 1 1 0 0 1 1 1 0 -2 0 0 0 -1 -1 -1 0 0 0 1 1 1 1 1 1 1 1 0 0 0 0 -1 -1 -1 0 1 2 0 -1 -1 -1 -1 -1 0 2 1 1 0 -1 -1 -1 -1 0 1 2 1 0 0 0 -1 -1 -1 0 -1 -2 -2 -1 0 0 0 0 0 0 -1 -1 1 1 2 1 1 1 0 -1 0 0 0 0 -1 -1 -1 0 0 0 0 0 0 0 1 0 -1 -1 -1 -2 -2 -1 -1 0 0 0 1 1 0 -1 0 1 1 2 1 0 -1 -1 0 1 1 0 0 0 -1 -1 0 1 1 0 -1 0 1 1 1 1 0 0 0 0 -1 -1 0 0 0 0 0 0 0 0 0 1 2 1 -1 -1 0 0 0 0 -1 0 1 1 0 0 0 0 0 0 0 1 2 2 3 4 3 1 1 1 1 1 0 0 0 1 1 0 -1 -1 -2 -1 -1 -1 -1 -2 -2 -1 0 1 1 1 1 1 1 1 1 2 0 -1 -2 -1 -1 0 0 0 0 0 0 0 0 -1 -1 -1 -1 -1 -1 -1 -1 -1 0 0 0 0 -1 0 2 4 4 4 3 1 0 0 1 0 0 0 0 0 0 0 0 0 -1 0 1 0 0 0 0 0 -1 -1 -1 -3 -3 -2 0 0 -1 -1 -1 0 1 1 1 0 -1 -2 -1 0 1 2 2 4 5 5 4 5 6 6 5 4 4 4 4 3 3 2 1 1 2 3 2 4 8 9 10 10 7 4 3 3 3 3 3 3 4 4 4 4 4 5 6 5 4 6 7 7 8 8 9 9 8 9 10 9 9 9 10 10 10 10 10 10 10 10 10 10 11 11 11 10 10 11 12 11 11 12 12 12 12 10 9 7 7 6 6 6 6 6 6 6 5 5 4 5 5 5 6 7 7 7 6 5 4 4 4 3 2 4 4 4 3 3 3 4 3 4 5 4 3 2 2 2 1 1 0 0 -1 -1 0 -1 -2 -1 -1 -1 -2 -1 0 -1 -1 -1 0 0 1 0 0 0 0 1 2 2 1 0 0 0 1 3 3 2 0 -1 -1 -1 -2 -1 0 0 0 -1 -1 -1 -2 -2 -3 -2 -2 -1 0 0 0 0 0 0 1 0 1 2 3 4 4 5 5 5 6 5 5 6 6 6 7 8 10 11 11 11 10 11 12 12 11 11 11 12 12 13 13 12 12 11 12 10 9 10 10 10 9 11 11 12 12 13 15 17 18 19 19 18 18 18 18 19 18 17 18 17 16 15 14 13 11 11 10 9 9 9 9 10 10 11 11 11 11 11 11 12 13 13 14 14 16 17 17 17 18 19 22 22 21 22 23 24 26 29 28 28 27 24 22 22 21 20 20 22 23 24 23 21 21 20 21 22 22 22 23 24 26 26 26 25 25 26 27 26 25 26 28 29 30 30 31 31 32 33 35 36 38 39 41 41 46 54 59 60 62 64 64 62 59 58 57 57 58 57 58 59 63 66 69 72 73 73 74 75 77 77 77 78 76 73 72 73 73 71 70 72 73 72 70 64 60 62 63 64 65 67 68 69 71 71 71 71 70 68 66 64 62 61 61 61 60 59 58 57 56 55 54 54 54 53 51 52 52 52 51 51 50 51 50 49 48 46 44 42 42 41 41 40 39 39 38 37 36 36 38 39 39 40 39 38 38 36 35 34 33 32 31 32 32 32 32 32 32 32 32 33 32 31 31 31 30 29 28 28 28 28 29 29 30 30 30 30 30 29 29 28 28 28 31 32 33 34 34 34 34 34 33 33 34 34 35 35 33 34 35 36 35 34 0 0 0 0 0 0
0 0 0 0 0 0 0 0 0 0 0 0 0 0 0 0 0 0 0 0 0 0 0 0 0 0 0 0 0 0 0 0 0 0 0 0 0 0 0 0 0 0 0 0 0 0 0 0 0 0 0 0 0 0 0 0 0 0 0 0 0 0 0 0 0 0 0 0 0 0 0 0 0 0 0 0 0 0 0 0 0 0 0 0 0 0 0 0 0 0 0 0 0 0 0 0 0 0 0 0 0 0 0 0 0 0 0 0 0 0 0 0 0 0 0 0 0 0 0 0 0 0 0 0 0 0 0 0 0 0 0 0 0 0 0 0 0 0 0 0 0 0 0 0 0 0 0 0 0 0 0 0 0 0 0 0 0 0 0 0 0 0 0 0 0 0 0 0 0 0 0 0 0 0 0 0 0 0 0 0 0 0 0 0 0 0 0 0 0 0 0 0 0 0 0 0 0 0 0 0 0 0 0 0 0 0 0 0 0 0 0 0 0 0 0 0 0 0 0 0 0 0 0 0 0 0 0 0 0 0 0 0 0 0 0 0 0 0 0 0 0 0 0 0 0 0 0 0 0 0 0 0 -1 0 0 -1 -1 0 0 -1 -2 -1 -1 0 0 0 -1 -1 -1 -1 0 1 1 0 -1 0 0 0 -1 -1 0 0 0 -1 -1 -3 -2 -1 -1 -1 -1 -1 -1 -1 -1 -2 -2 -1 -1 -2 -2 -2 -2 -1 -1 -1 -1 0 0 0 -1 -1 -1 -2 -2 -2 -2 -2 -1 0 -1 -1 -1 -1 -1 -1 -2 -2 -2 -1 -1 0 0 -1 -1 -1 -1 -2 -2 -2 -1 -1 -2 -2 -2 -1 0 -1 -1 -1 -1 -1 -1 -2 -2 -1 0 0 0 1 1 1 1 1 0 0 0 0 0 -1 -1 0 1 1 1 1 1 1 0 0 -1 0 0 0 -1 -1 0 1 0 0 -1 -2 -2 -1 -1 0 0 0 0 1 1 0 1 1 0 0 -1 -1 -1 0 1 2 2 0 -1 -2 -2 -1 -1 -1 -1 0 1 0 -1 0 0 1 1 1 0 0 0 0 0 1 2 1 1 1 0 0 2 2 1 0 -1 0 1 0 -2 -2 -1 -1 -1 0 1 1 0 1 1 1 1 2 0 0 0 1 0 0 0 -1 -1 0 1 0 0 0 0 0 0 0 0 0 0 0 0 1 1 1 1 0 -1 -1 -2 -1 1 0 0 1 1 1 1 0 0 -1 0 1 1 1 1 0 0 0 1 1 1 0 -1 -1 -1 -1 -1 -2 -2 -2 -2 -1 -1 -1 1 3 3 2 2 2 1 1 1 1 0 0 0 0 1 1 1 1 1 0 0 0 0 0 -1 0 0 0 0 -1 -1 0 0 1 0 -1 -1 0 1 2 2 1 0 0 -1 -1 0 0 0 0 0 0 0 -1 0 1 1 1 1 0 -1 -1 -1 -1 -1 0 0 -1 -2 -1 0 -1 -1 0 0 0 0 0 0 1 1 -1 -1 -1 0 0 0 0 0 0 -1 -1 0 1 1 1 -1 -1 -1 1 3 4 4 4 3 2 2 1 1 1 0 -1 0 1 1 0 0 -1 -2 -1 -1 0 0 0 -1 -1 0 0 1 1 1 1 1 1 2 2 0 -1 -1 -1 -1 0 -1 -1 -2 -1 -1 -1 -1 -1 -2 -1 0 0 -1 -1 -1 0 1 0 -1 0 1 1 2 4 4 3 3 1 0 -1 0 1 0 0 1 1 1 1 0 0 0 0 0 0 -1 -1 -1 -1 -1 -1 0 -1 -1 0 0 -1 -1 -1 -2 -2 -2 -1 0 0 0 -1 -2 -1 2 4 4 5 5 5 5 6 6 5 5 4 4 3 3 3 3 3 2 2 1 2 3 3 5 7 9 10 8 6 4 4 5 5 6 6 5 5 4 4 3 4 5 6 7 6 6 7 9 10 11 10 9 10 10 9 9 11 12 12 11 11 11 9 9 9 10 11 11 12 12 11 10 11 12 12 12 11 10 10 9 10 10 8 8 8 7 7 7 7 7 5 4 3 3 4 3 3 4 6 6 6 6 6 5 4 3 2 3 4 4 4 4 3 3 4 4 5 6 5 4 3 1 1 0 0 1 0 1 0 0 -1 -2 -1 -1 -1 -2 -2 -2 -1 0 1 1 0 0 0 0 0 1 1 1 1 1 0 0 0 2 4 4 2 0 -1 -2 -2 -2 -1 -2 -1 0 -1 -1 0 0 -1 -2 -2 -2 -1 -2 0 0 0 1 0 0 0 0 1 0 1 1 2 2 2 3 4 4 5 6 7 7 9 10 11 10 10 9 8 10 11 11 11 11 12 12 12 12 13 12 11 10 9 9 10 11 11 11 12 12 13 13 13 14 15 16 18 19 19 18 19 19 19 19 19 17 16 14 14 14 13 13 13 12 11 9 8 8 9 9 10 11 11 12 12 13 13 14 15 15 14 14 16 18 17 19 21 23 23 22 25 27 31 35 39 40 41 39 33 24 20 19 20 21 22 23 23 22 22 22 23 23 23 23 23 24 24 24 24 24 26 26 27 27 27 28 28 29 29 30 32 33 33 34 35 34 35 38 40 41 44 52 59 61 61 63 63 60 57 54 53 51 52 53 54 56 57 60 64 68 71 73 74 74 75 77 78 78 79 80 79 78 79 80 79 78 76 75 75 73 68 66 65 65 66 67 70 71 71 71 71 73 74 73 71 67 65 63 61 60 60 59 58 57 56 55 54 53 53 53 52 52 51 49 49 48 48 49 49 47 46 46 45 45 43 42 41 41 42 42 41 40 39 37 37 38 41 42 43 42 39 36 34 33 33 34 34 33 33 33 33 33 33 33 34 34 33 32 32 33 32 30 29 28 27 27 27 27 28 28 27 28 28 28 28 29 29 29 29 30 30 31 31 32 32 33 32 32 33 34 35 34 34 34 34 34 35 35 36 0 0 0 0 0 0
0 0 0 0 0 0 0 0 0 0 0 0 0 0 0 0 0 0 0 0 0 0 0 0 0 0 0 0 0 0 0 0 0 0 0 0 0 0 0 0 0 0 0 0 0 0 0 0 0 0 0 0 0 0 0 0 0 0 0 0 0 0 0 0 0 0 0 0 0 0 0 0 0 0 0 0 0 0 0 0 0 0 0 0 0 0 0 0 0 0 0 0 0 0 0 0 0 0 0 0 0 0 0 0 0 0 0 0 0 0 0 0 0 0 0 0 0 0 0 0 0 0 0 0 0 0 0 0 0 0 0 0 0 0 0 0 0 0 0 0 0 0 0 0 0 0 0 0 0 0 0 0 0 0 0 0 0 0 0 0 0 0 0 0 0 0 0 0 0 0 0 0 0 0 0 0 0 0 0 0 0 0 0 0 0 0 0 0 0 0 0 0 0 0 0 0 0 0 0 0 0 0 0 0 0 0 0 0 0 0 0 0 0 0 0 0 0 0 0 0 0 0 0 0 0 0 0 0 0 0 0 0 0 0 0 0 0 0 0 0 0 0 0 0 0 0 0 0 0 0 0 0 -1 0 0 -1 0 1 0 0 -1 -1 -1 -1 0 0 0 -1 0 0 1 1 1 0 -1 -1 -1 -1 -1 -1 0 0 -1 -1 -2 -3 -2 -2 -2 -1 -1 -2 -2 -2 -2 -2 -3 -2 -2 -3 -2 -2 -2 -1 -1 -1 0 1 1 0 -1 -1 -1 -1 -2 -2 -2 -1 0 0 0 -1 -1 -1 -1 -2 -2 -1 -1 0 0 0 1 0 -1 -1 -1 -2 -2 -2 -2 -2 -2 -3 -2 -1 0 0 -1 -1 -1 -1 -2 -1 -1 -1 0 1 1 1 0 0 0 0 0 0 0 0 0 0 0 1 2 2 2 1 0 0 0 -1 -1 -1 -1 -1 0 0 0 1 0 -1 -2 -2 -1 -1 -1 -1 -1 -1 -1 0 1 0 1 1 1 0 -1 -1 -1 0 1 2 1 0 -1 -1 -1 -1 -1 0 0 1 1 1 1 1 0 0 0 -1 -1 -1 0 0 0 1 2 1 1 1 0 1 2 2 1 0 0 0 0 0 -2 -2 -1 0 0 1 2 1 0 1 2 1 1 2 0 0 0 1 0 -1 0 0 -1 0 1 0 0 0 0 0 0 0 0 0 0 0 0 1 1 1 1 -1 -2 -1 -2 -1 1 1 0 0 0 0 1 0 0 0 1 2 1 1 1 0 0 -1 0 1 1 0 0 0 -1 -1 -1 -2 -2 -1 -1 -2 -1 -1 0 1 2 2 2 2 2 1 1 0 0 1 1 1 1 0 1 1 1 0 -1 -1 0 1 1 0 1 0 0 0 0 0 0 1 1 0 1 1 2 1 1 1 0 0 -1 -1 0 0 -1 -1 0 0 0 -1 0 1 1 1 1 0 0 0 0 0 -1 0 1 0 -1 0 0 -1 -1 0 0 0 0 0 0 1 1 1 0 0 0 1 1 0 -1 -1 -1 0 -1 0 1 1 0 0 -1 0 1 2 3 3 2 2 2 1 0 -1 -2 -1 0 1 1 0 0 0 0 -1 0 1 1 1 0 0 -1 -2 0 0 -1 0 0 0 1 1 1 0 0 -1 -1 -1 -2 -2 -2 -1 -1 -1 -1 -1 -1 0 1 2 1 1 0 0 0 -1 -2 -1 0 0 1 2 2 1 1 0 -1 -1 0 0 0 0 0 0 0 0 0 0 1 1 0 -1 0 -1 -1 -1 -1 0 0 1 2 1 0 -1 -1 -1 -2 -2 -2 -1 0 0 0 -1 -1 -1 2 3 3 4 5 5 5 5 5 6 6 5 4 4 4 4 5 3 2 1 1 2 4 4 5 6 9 10 8 6 5 4 5 5 5 5 5 5 5 5 4 5 5 6 7 7 7 8 10 12 11 10 9 10 11 10 11 12 12 12 11 11 11 10 10 10 10 11 11 12 13 12 11 11 12 12 11 10 9 10 10 9 9 9 9 8 7 6 6 6 6 6 5 4 4 3 3 3 3 5 5 5 5 6 5 4 3 2 2 2 3 3 4 4 4 5 5 6 6 5 3 2 1 1 1 1 1 1 1 1 1 0 -1 -1 -2 -2 -2 -2 -2 -2 -1 0 0 0 0 0 0 0 1 1 1 1 0 0 0 1 2 3 3 1 0 -1 -1 -1 -1 -1 -1 -1 -1 -1 -1 0 0 -1 -2 -1 -1 -2 -2 -1 0 0 0 0 0 1 0 0 0 0 0 1 2 2 3 4 4 5 6 7 7 8 10 10 9 9 8 8 9 9 10 10 11 12 12 12 12 12 12 11 9 8 8 9 10 11 12 13 13 13 13 14 15 15 16 18 20 19 19 19 19 19 19 19 17 16 15 15 14 14 13 13 12 11 11 10 9 9 10 10 11 12 13 13 13 13 15 16 16 15 15 16 18 17 22 25 30 30 27 28 31 36 38 40 42 41 41 37 28 22 20 21 22 22 23 23 23 23 23 24 24 23 24 24 25 25 24 23 24 27 27 27 26 27 27 28 29 30 32 33 34 34 35 35 35 36 38 39 41 46 54 60 62 62 63 62 58 53 50 49 49 49 51 52 54 55 58 63 69 72 73 74 74 75 76 76 76 77 78 79 81 82 82 81 79 77 75 74 73 70 68 67 67 67 68 72 73 73 73 73 74 74 73 71 68 66 63 62 61 61 59 59 58 56 55 54 54 54 53 52 51 50 50 50 49 48 48 46 45 45 45 45 45 43 43 42 41 41 40 40 40 39 39 38 39 40 40 41 39 37 36 34 33 33 33 33 34 33 33 33 32 32 33 34 35 35 33 31 32 32 30 29 29 28 27 27 27 27 27 26 27 27 27 27 28 29 30 30 30 30 30 30 31 31 31 31 32 33 34 35 34 34 34 34 34 34 35 36 0 0 0 0 0 0
0 0 0 0 0 0 0 0 0 0 0 0 0 0 0 0 0 0 0 0 0 0 0 0 0 0 0 0 0 0 0 0 0 0 0 0 0 0 0 0 0 0 0 0 0 0 0 0 0 0 0 0 0 0 0 0 0 0 0 0 0 0 0 0 0 0 0 0 0 0 0 0 0 0 0 0 0 0 0 0 0 0 0 0 0 0 0 0 0 0 0 0 0 0 0 0 0 0 0 0 0 0 0 0 0 0 0 0 0 0 0 0 0 0 0 0 0 0 0 0 0 0 0 0 0 0 0 0 0 0 0 0 0 0 0 0 0 0 0 0 0 0 0 0 0 0 0 0 0 0 0 0 0 0 0 0 0 0 0 0 0 0 0 0 0 0 0 0 0 0 0 0 0 0 0 0 0 0 0 0 0 0 0 0 0 0 0 0 0 0 0 0 0 0 0 0 0 0 0 0 0 0 0 0 0 0 0 0 0 0 0 0 0 0 0 0 0 0 0 0 0 0 0 0 0 0 0 0 0 0 0 0 0 0 0 0 0 0 0 0 0 0 0 0 0 0 0 0 0 0 0 1 2 0 0 1 2 1 0 0 -1 -2 -1 0 -1 -1 -1 0 1 1 1 1 0 -1 -2 -1 -1 -1 -1 -1 -1 -2 -2 -2 -2 -1 -1 -1 -1 -1 -1 -2 -2 -1 -1 -2 -2 -2 -2 -2 -1 -2 -1 -1 -1 -1 0 1 1 0 -1 -1 -1 -1 -1 -1 -1 -1 -1 -2 -1 -1 -1 -1 -2 -1 -2 -1 -1 -1 -1 -1 -1 -1 0 -1 -1 -1 -2 -2 -2 -2 -2 -3 -2 -1 -1 -1 -1 0 -1 -1 -1 0 0 0 -1 0 0 -1 -1 -1 -1 0 0 0 -1 0 1 2 1 1 2 2 2 2 1 0 0 0 0 0 -1 -1 -1 -1 0 0 0 0 -1 -1 -1 -1 0 0 0 0 -1 0 1 1 0 0 0 0 0 0 0 0 0 0 0 0 1 1 -1 -1 -1 -1 -1 0 1 1 1 0 1 0 0 0 0 0 -1 0 -1 -2 -1 -1 1 1 0 0 0 0 1 1 0 -1 -2 -1 0 1 2 4 3 2 2 1 0 0 1 1 0 -2 -2 -1 -1 -1 -1 0 1 0 0 -2 -1 -1 1 2 2 2 1 1 0 1 1 1 0 1 0 0 -1 -1 0 0 1 1 0 1 1 0 -1 -1 -1 -1 0 0 0 0 0 1 1 0 0 0 0 1 1 1 1 0 -1 -1 -1 -1 -1 -1 0 0 1 1 1 1 1 1 2 2 3 2 1 1 0 1 1 0 -1 -1 0 0 0 0 0 0 0 1 1 1 1 1 1 1 2 1 0 -1 -1 0 1 1 1 1 1 1 0 -1 -1 -1 -2 -2 -1 -1 0 0 0 1 2 2 1 0 1 2 2 2 1 1 1 2 3 3 2 0 0 0 -1 -1 -1 0 1 1 1 1 1 2 2 1 1 0 0 -1 -2 -1 -1 -2 -2 -1 -1 0 0 0 -1 -1 -1 0 0 0 1 1 1 1 -1 -1 -2 -1 0 -1 0 1 0 -1 -1 0 0 1 2 1 1 0 0 -1 -1 1 0 0 0 0 1 1 1 1 1 1 1 -1 -2 -2 -1 0 0 0 -1 0 0 1 2 2 1 1 0 -1 -2 -2 -2 -2 -2 -2 0 1 1 0 0 0 -1 -2 -2 -1 -1 0 0 0 0 -1 0 1 1 1 1 0 1 0 0 0 0 1 0 0 1 0 0 0 0 -1 -2 -2 -1 0 -1 0 1 1 0 0 1 2 3 4 5 5 6 6 6 6 6 5 5 5 5 5 4 3 3 1 0 1 2 2 1 2 3 4 5 6 5 3 2 2 4 5 5 5 5 5 5 6 6 6 7 6 7 8 9 10 9 9 10 11 10 10 10 11 11 11 11 11 11 10 12 12 13 12 11 11 12 13 12 10 10 8 8 8 8 9 9 8 8 7 8 7 7 5 5 5 5 4 3 3 3 1 2 2 3 4 5 6 6 6 5 3 2 1 1 1 1 1 2 3 4 4 5 5 4 4 4 4 3 3 3 3 2 1 0 0 0 -1 -2 -2 -2 -2 -1 -1 -1 -1 0 0 -1 0 0 0 0 0 0 1 1 0 0 0 0 -1 0 0 0 -1 -2 -2 -2 -2 -2 -1 0 -1 -2 -2 -1 0 -1 -2 -3 -2 -1 -1 -2 -2 -1 -1 -1 0 1 1 1 1 0 0 0 0 1 1 2 3 4 6 7 8 8 8 7 7 8 8 9 10 9 8 9 9 10 11 11 10 10 10 10 9 10 9 8 8 9 10 12 13 13 13 14 15 16 17 18 19 21 21 20 20 20 19 18 17 17 16 15 16 15 15 14 14 13 12 12 12 10 9 10 10 11 13 14 14 13 14 14 15 16 16 17 19 21 22 26 29 34 36 37 37 38 42 42 41 40 40 39 37 33 28 24 22 22 22 23 25 25 25 25 25 24 24 24 25 25 25 24 23 24 25 25 25 26 26 26 27 29 31 32 33 33 33 34 35 36 37 38 39 40 43 50 55 56 57 58 58 55 50 46 45 46 48 50 52 53 53 54 58 63 66 67 67 70 71 71 71 71 73 77 80 81 80 79 80 80 80 77 72 71 69 68 68 69 70 72 74 75 75 75 75 74 74 72 70 68 67 64 61 59 59 58 58 57 55 54 53 53 53 52 51 50 50 50 50 49 48 46 45 45 45 46 45 44 41 41 41 41 40 39 38 37 37 37 37 38 37 37 36 36 36 35 35 35 34 34 33 33 33 33 33 32 31 32 33 34 34 34 32 30 30 30 29 28 27 27 26 26 28 27 28 27 27 27 28 29 29 29 28 28 28 30 32 32 32 32 32 33 33 33 33 34 35 36 36 36 36 36 37 0 0 0 0 0 0
0 0 0 0 0 0 0 0 0 0 0 0 0 0 0 0 0 0 0 0 0 0 0 0 0 0 0 0 0 0 0 0 0 0 0 0 0 0 0 0 0 0 0 0 0 0 0 0 0 0 0 0 0 0 0 0 0 0 0 0 0 0 0 0 0 0 0 0 0 0 0 0 0 0 0 0 0 0 0 0 0 0 0 0 0 0 0 0 0 0 0 0 0 0 0 0 0 0 0 0 0 0 0 0 0 0 0 0 0 0 0 0 0 0 0 0 0 0 0 0 0 0 0 0 0 0 0 0 0 0 0 0 0 0 0 0 0 0 0 0 0 0 0 0 0 0 0 0 0 0 0 0 0 0 0 0 0 0 0 0 0 0 0 0 0 0 0 0 0 0 0 0 0 0 0 0 0 0 0 0 0 0 0 0 0 0 0 0 0 0 0 0 0 0 0 0 0 0 0 0 0 0 0 0 0 0 0 0 0 0 0 0 0 0 0 0 0 0 0 0 0 0 0 0 0 0 0 0 0 0 0 0 0 0 0 0 0 0 0 0 0 0 0 0 0 0 0 0 0 0 0 0 -1 -1 0 1 2 1 1 0 0 0 0 0 0 0 1 2 2 1 1 1 0 -1 -2 -1 0 0 -1 -1 -1 0 1 0 -1 -1 -1 -1 -1 -1 0 0 -1 -1 -1 -1 -1 -2 -2 -2 -2 -2 -1 -1 -1 -1 -1 -1 -1 -1 -1 -2 -1 0 0 -1 -1 -2 -2 -1 -2 -2 -2 -2 -2 0 0 0 0 0 0 -1 -2 -1 -1 -2 -2 -1 -1 -1 -2 -3 -2 -1 -1 0 0 -1 -2 -2 0 0 0 0 0 0 0 -1 0 0 -1 -1 -1 -1 0 -1 -1 0 1 1 1 1 1 1 1 1 1 0 1 1 1 1 0 0 -1 -1 0 1 0 0 0 0 -1 -1 -1 0 0 0 0 -1 0 1 1 1 1 1 1 1 1 0 -1 0 0 -1 -1 0 -1 -1 -1 0 0 1 0 -1 -1 0 1 2 2 0 -1 -1 -1 -1 -1 -1 0 1 1 1 0 -1 -1 -1 -1 0 0 -1 0 -1 0 1 3 5 3 0 -1 0 1 1 1 1 1 0 -1 -2 -2 -1 0 0 0 -1 -1 -1 -1 -1 0 0 0 0 1 2 1 1 0 0 -1 -1 0 0 1 0 -1 -1 0 1 1 1 0 0 0 0 0 -1 0 0 0 1 1 1 1 1 1 1 2 2 2 2 2 1 -1 -2 -2 -2 -2 -2 -1 0 1 1 1 1 1 1 2 2 2 2 1 1 0 0 0 0 0 -1 -1 -1 -1 -1 -2 -2 -1 0 0 1 1 1 1 0 -1 0 1 0 -1 -3 -1 0 1 1 1 0 -1 -1 0 0 0 0 0 0 -1 -1 0 1 1 1 2 1 0 0 1 1 1 1 1 2 2 1 1 0 0 0 0 -1 -1 -1 0 0 -1 0 0 1 1 0 -1 0 0 0 0 0 -1 -2 -2 -1 1 1 -1 -1 -1 0 1 2 1 0 0 0 0 1 1 1 1 2 2 1 0 1 1 1 0 -1 -1 -1 0 1 1 0 1 0 0 0 -1 0 0 1 1 1 1 2 1 0 -1 -1 -2 -2 -2 -1 -1 -1 -1 -1 -1 0 1 0 0 0 0 0 0 0 0 0 0 0 1 2 2 3 2 1 0 -1 -1 0 0 0 0 0 0 -1 -1 0 1 1 1 0 0 0 0 0 -1 -1 -1 -1 -1 -1 1 1 1 1 2 1 0 0 -2 -3 -2 -1 0 1 1 3 4 6 7 7 6 6 6 6 4 3 4 3 2 1 1 0 1 2 2 1 1 1 1 1 0 1 2 3 3 3 2 3 4 5 5 5 4 4 5 5 4 4 6 7 7 7 8 8 7 7 9 10 10 10 10 9 9 9 10 10 9 9 11 11 12 11 12 12 11 11 11 10 10 9 9 7 6 7 8 8 8 8 7 6 6 6 6 6 6 5 3 2 1 2 3 4 4 4 4 5 5 6 4 3 2 1 0 1 2 3 4 5 3 2 2 3 3 3 4 3 1 1 2 3 2 1 0 -1 -1 -1 -1 -1 -2 -2 -1 -1 0 0 0 -1 -1 0 0 0 0 -1 -2 -1 -2 -3 -2 0 0 -1 -1 -1 -1 -1 -2 -2 -2 -1 -1 -1 -1 -1 -2 -3 -3 -3 -2 -2 -2 -2 -2 -2 -2 -1 -1 -1 0 1 1 1 1 0 0 0 0 0 1 1 2 3 2 3 5 6 6 6 7 6 6 6 7 8 8 8 9 10 10 9 9 9 9 8 8 7 8 8 9 10 11 11 12 12 12 14 15 15 15 17 18 20 21 21 20 19 19 18 17 18 17 17 16 15 14 13 13 13 13 12 13 12 11 12 12 11 11 12 15 15 17 18 19 21 23 25 25 27 29 27 28 31 35 37 39 38 38 40 40 38 37 36 35 33 31 29 26 24 23 23 24 26 25 25 25 25 26 26 26 26 25 26 26 25 25 25 25 25 25 26 27 27 28 29 31 32 33 33 33 35 37 38 39 39 39 40 41 46 48 49 53 56 56 54 51 49 47 47 47 50 51 51 51 54 57 58 59 62 64 67 69 72 72 73 74 77 77 76 75 76 77 78 77 72 71 69 68 67 68 69 70 71 71 72 73 73 73 73 73 72 70 68 64 62 61 60 59 59 58 57 57 56 55 54 53 52 51 51 50 50 49 47 46 45 45 45 45 45 44 41 41 40 40 41 41 40 40 38 35 34 35 36 36 35 34 33 32 32 33 34 33 33 33 32 32 33 32 31 31 32 32 31 30 30 29 29 29 28 28 27 26 25 26 27 26 25 25 25 26 28 29 30 29 29 29 29 30 31 32 32 32 33 33 33 34 34 33 34 35 35 35 36 36 37 0 0 0 0 0 0
0 0 0 0 0 0 0 0 0 0 0 0 0 0 0 0 0 0 0 0 0 0 0 0 0 0 0 0 0 0 0 0 0 0 0 0 0 0 0 0 0 0 0 0 0 0 0 0 0 0 0 0 0 0 0 0 0 0 0 0 0 0 0 0 0 0 0 0 0 0 0 0 0 0 0 0 0 0 0 0 0 0 0 0 0 0 0 0 0 0 0 0 0 0 0 0 0 0 0 0 0 0 0 0 0 0 0 0 0 0 0 0 0 0 0 0 0 0 0 0 0 0 0 0 0 0 0 0 0 0 0 0 0 0 0 0 0 0 0 0 0 0 0 0 0 0 0 0 0 0 0 0 0 0 0 0 0 0 0 0 0 0 0 0 0 0 0 0 0 0 0 0 0 0 0 0 0 0 0 0 0 0 0 0 0 0 0 0 0 0 0 0 0 0 0 0 0 0 0 0 0 0 0 0 0 0 0 0 0 0 0 0 0 0 0 0 0 0 0 0 0 0 0 0 0 0 0 0 0 0 0 0 0 0 0 0 0 0 0 0 0 0 0 0 0 0 0 0 0 0 -3 -3 -3 0 1 2 2 1 1 0 1 1 1 1 1 1 1 2 2 1 0 0 -1 -1 -1 -1 -2 -2 -1 -1 -1 -1 -2 -2 -2 -1 -1 -1 -1 -1 -1 -2 -2 -1 -1 -1 -2 -2 -3 -2 -2 -1 -1 -2 -1 -1 -1 0 -1 -1 -2 -1 -1 0 -1 -2 -2 -2 -1 -1 -1 -1 -1 -1 -2 -2 -2 -2 -2 -2 -1 -2 -2 -2 -2 -3 -1 -1 0 0 0 0 -1 -2 -1 -1 -1 -1 -2 -2 -1 -1 0 0 0 0 -1 0 1 0 -1 -1 -1 -1 -1 0 0 0 -1 -1 1 1 0 -1 -1 0 -1 0 1 0 0 0 0 0 0 0 0 0 0 1 2 1 0 -1 -1 -1 -1 -1 -1 -1 -2 -1 -1 -1 -1 -1 -1 -1 -1 0 0 0 -2 -2 -1 0 0 -1 1 2 2 1 -1 -2 -2 -1 0 0 0 -1 -2 -2 -2 -1 0 0 0 1 1 0 0 -1 -2 -2 -1 -2 -1 0 1 1 1 1 0 2 2 1 0 0 0 -1 0 0 1 0 0 0 0 1 0 0 0 1 0 -1 0 0 -1 -1 -1 0 1 1 1 0 -2 -1 -1 -1 0 1 2 2 1 1 1 0 1 0 0 0 1 1 1 0 0 0 -1 1 1 2 3 3 3 2 1 2 3 3 2 1 0 -2 -1 0 0 1 0 1 1 1 1 0 0 1 3 3 2 2 1 1 1 1 0 -1 0 0 0 0 -1 -2 -3 -3 -2 -1 0 0 0 1 1 0 -1 0 0 0 -1 -1 1 1 0 -1 -1 -1 -1 -2 -2 -1 -1 -1 -1 0 0 0 -1 0 1 1 1 2 1 2 3 3 2 2 1 0 0 -1 0 0 0 0 -2 -2 -2 -1 0 1 1 1 1 1 0 -1 0 1 1 0 -1 -1 0 0 0 1 1 0 0 0 0 0 1 1 0 -1 0 1 1 2 2 2 3 3 2 1 0 0 1 2 1 1 1 0 0 0 0 1 1 0 -1 -1 -2 -2 -2 -1 0 0 0 0 0 0 -1 -1 -2 -2 -3 -2 -1 -2 -2 -1 0 0 0 0 -1 -1 0 0 1 0 -1 -2 -2 0 2 3 3 1 0 0 0 0 0 0 0 0 0 0 0 -1 -1 0 1 1 1 1 0 -1 -1 -1 0 0 0 -1 -2 -1 0 1 2 3 3 2 -1 -2 -1 -1 0 0 -1 0 3 5 5 5 5 6 7 6 5 5 3 3 3 2 2 1 0 -1 -2 -2 -3 -2 0 0 -2 -2 -1 0 1 2 2 3 4 4 4 4 5 5 4 3 3 3 2 2 3 2 3 4 6 7 7 8 9 10 11 10 10 9 10 10 9 9 9 9 10 10 11 10 9 9 10 11 11 10 8 6 6 5 5 5 6 7 6 6 6 6 4 3 3 3 4 3 1 0 1 2 2 3 3 3 3 4 5 3 2 1 1 0 1 2 3 3 3 3 2 2 1 2 3 2 2 2 1 1 0 1 1 1 0 0 -1 0 -1 -1 -2 -1 1 2 2 1 0 -1 -1 0 -1 -2 -2 -1 -1 -1 -2 -2 -2 -1 -1 -1 -1 0 0 -1 -2 -3 -2 -1 0 0 -1 -2 -2 -1 -1 -1 0 0 -1 -1 -1 -1 -1 -1 -1 -1 -1 -1 0 0 0 0 0 0 -1 -1 0 0 1 2 3 3 3 4 5 5 6 6 7 7 7 7 7 8 9 8 7 5 7 7 7 6 5 5 6 7 8 9 10 11 12 12 12 12 13 13 14 16 17 19 19 19 18 19 19 19 18 19 17 16 15 14 13 14 14 14 14 15 15 13 13 14 14 14 13 15 16 17 21 25 27 27 28 29 29 28 31 34 36 36 35 33 32 31 30 32 32 33 32 28 27 27 28 28 26 25 25 25 26 27 28 28 28 28 27 28 29 28 28 27 27 26 26 26 26 26 27 27 27 28 29 31 31 33 35 35 35 36 37 37 38 39 40 42 45 48 54 56 60 62 63 60 56 53 47 42 43 47 48 47 46 46 50 54 56 61 66 67 68 68 68 68 68 70 71 71 72 72 72 74 73 72 72 71 70 69 68 66 65 66 67 68 70 70 70 72 73 72 69 67 64 63 61 59 58 58 59 58 57 55 54 53 52 51 51 50 50 49 47 46 45 44 44 44 43 43 43 42 42 41 40 39 39 38 37 37 36 35 35 34 34 34 33 32 32 32 31 32 33 33 33 33 32 31 30 29 29 29 30 30 30 29 28 28 28 29 29 28 28 27 27 27 27 27 27 26 25 27 28 29 29 29 29 29 30 32 34 35 36 35 34 34 34 34 33 34 35 35 35 36 36 38 0 0 0 0 0 0
0 0 0 0 0 0 0 0 0 0 0 0 0 0 0 0 0 0 0 0 0 0 0 0 0 0 0 0 0 0 0 0 0 0 0 0 0 0 0 0 0 0 0 0 0 0 0 0 0 0 0 0 0 0 0 0 0 0 0 0 0 0 0 0 0 0 0 0 0 0 0 0 0 0 0 0 0 0 0 0 0 0 0 0 0 0 0 0 0 0 0 0 0 0 0 0 0 0 0 0 0 0 0 0 0 0 0 0 0 0 0 0 0 0 0 0 0 0 0 0 0 0 0 0 0 0 0 0 0 0 0 0 0 0 0 0 0 0 0 0 0 0 0 0 0 0 0 0 0 0 0 0 0 0 0 0 0 0 0 0 0 0 0 0 0 0 0 0 0 0 0 0 0 0 0 0 0 0 0 0 0 0 0 0 0 0 0 0 0 0 0 0 0 0 0 0 0 0 0 0 0 0 0 0 0 0 0 0 0 0 0 0 0 0 0 0 0 0 0 0 0 0 0 0 0 0 0 0 0 0 0 0 0 0 0 0 0 0 0 0 0 0 0 0 0 0 0 0 0 0 -2 0 0 2 2 2 1 1 1 2 2 2 2 1 0 0 0 0 0 0 0 0 0 -1 -1 -1 -2 -2 -2 -1 -2 -2 -2 -1 -2 -1 -1 0 0 0 -1 -1 -1 -1 -2 -2 -2 -2 -2 -2 -2 -2 -2 -2 -2 -1 0 0 0 0 0 0 0 0 1 -1 -1 -1 -1 -1 -1 -1 -1 -2 -2 -3 -2 -2 -2 -1 -1 -2 -2 -1 -1 -1 -1 0 1 1 1 1 0 -1 -1 -1 -1 -2 -2 -1 -1 -1 -1 -1 0 0 -1 -1 0 0 -1 0 0 0 -1 -1 -1 -1 -1 -1 0 0 0 0 0 1 2 2 0 -1 -1 0 0 0 0 0 1 1 1 2 1 0 -1 0 0 -1 -1 -1 0 -1 0 1 0 0 0 0 1 1 1 1 1 1 0 0 1 0 -1 0 0 0 0 1 0 0 1 0 -1 -2 -2 -1 -1 -1 -2 -1 0 0 1 2 1 2 2 2 2 2 1 -1 -1 1 2 2 0 -1 0 2 2 2 2 1 0 -1 -1 0 0 1 0 0 0 1 2 1 0 1 1 -1 -1 0 1 0 0 0 0 0 0 1 1 1 0 0 0 1 2 2 1 0 0 0 0 0 0 -1 -1 -1 -1 -1 0 0 0 0 2 2 3 3 3 2 2 2 2 1 0 -1 0 0 0 1 1 0 0 0 0 0 1 1 0 0 2 2 3 2 2 1 1 1 1 0 0 1 1 1 0 0 0 -1 -1 -1 0 0 -1 -1 -1 -1 -1 -1 -1 0 1 1 2 1 0 -1 -1 0 0 0 1 1 0 -1 -1 0 0 -1 -2 -1 0 0 0 1 1 1 -1 -1 0 0 0 0 0 0 1 1 0 0 0 0 0 -1 0 0 0 -1 -1 -1 0 0 1 1 1 0 0 0 0 1 1 1 -1 0 0 0 0 -1 -1 0 1 1 1 1 1 2 1 1 1 1 0 -1 -1 -1 0 0 0 0 0 -1 -1 -2 -2 -1 -1 -1 -1 -1 -2 -1 -1 0 1 1 0 -1 -1 -1 -1 0 0 0 0 0 -1 -2 -2 -2 -1 0 0 0 0 0 1 2 0 -2 -3 -2 -1 -1 -1 0 0 0 0 -1 -2 -2 -1 -1 -1 -1 -1 0 0 0 0 0 1 2 2 2 1 0 -1 -1 -1 0 0 0 0 0 0 1 3 3 2 2 0 -1 0 1 1 0 0 2 4 5 5 4 4 5 5 5 4 4 4 4 2 0 0 0 -1 -2 -1 -2 -3 -3 -1 1 0 0 0 1 1 1 2 1 4 6 7 7 7 7 6 5 5 4 3 2 2 1 1 2 4 5 7 9 10 11 11 11 10 10 10 10 12 11 11 11 9 9 8 9 9 8 7 8 10 10 8 6 6 5 5 6 6 6 6 6 6 6 3 3 3 3 3 1 0 -1 -1 0 0 2 3 3 3 3 2 2 2 2 1 0 1 1 0 0 -1 -1 0 2 3 4 3 2 2 2 2 2 1 0 0 0 -1 -1 0 0 0 -1 -1 -1 -1 0 1 0 -1 -1 1 2 1 0 0 1 0 -1 -1 0 -1 -1 -1 0 1 1 1 0 -1 -2 -2 -2 -1 -1 -1 -2 -3 -2 -2 -1 -1 -1 -2 -1 0 0 -1 -2 0 0 0 -1 -1 0 0 0 -1 -2 -2 -1 1 1 2 3 3 3 4 5 5 6 6 6 6 6 7 7 7 7 7 6 4 3 4 5 5 6 6 5 5 6 7 8 9 9 10 11 12 13 13 12 13 14 15 15 15 16 16 16 16 17 17 18 17 16 16 16 17 16 16 16 17 17 15 14 15 16 17 17 17 18 21 23 27 29 29 29 29 29 29 29 30 33 36 36 33 29 27 27 26 25 25 25 25 22 22 23 24 25 25 25 26 27 28 28 28 29 29 30 30 30 30 30 30 29 28 28 28 28 28 28 27 28 29 29 29 31 32 33 35 35 36 36 37 38 39 40 41 41 43 50 56 58 61 62 63 63 60 57 51 45 43 45 45 45 45 46 50 54 56 58 59 60 64 62 62 61 63 66 68 68 67 66 67 68 67 67 68 69 70 70 66 62 60 61 61 62 64 65 67 68 70 71 71 70 66 64 62 61 60 59 58 58 56 55 54 53 52 51 51 50 50 50 48 46 45 44 43 44 43 42 42 41 41 41 40 39 38 38 37 37 36 35 34 34 34 35 34 33 33 33 33 32 32 33 33 32 32 32 31 31 30 30 29 28 29 28 28 28 28 29 29 29 29 28 27 27 27 28 27 27 27 27 28 29 29 29 29 30 31 33 35 36 37 37 36 35 34 34 34 34 34 34 34 34 35 36 0 0 0 0 0 0
0 0 0 0 0 0 0 0 0 0 0 0 0 0 0 0 0 0 0 0 0 0 0 0 0 0 0 0 0 0 0 0 0 0 0 0 0 0 0 0 0 0 0 0 0 0 0 0 0 0 0 0 0 0 0 0 0 0 0 0 0 0 0 0 0 0 0 0 0 0 0 0 0 0 0 0 0 0 0 0 0 0 0 0 0 0 0 0 0 0 0 0 0 0 0 0 0 0 0 0 0 0 0 0 0 0 0 0 0 0 0 0 0 0 0 0 0 0 0 0 0 0 0 0 0 0 0 0 0 0 0 0 0 0 0 0 0 0 0 0 0 0 0 0 0 0 0 0 0 0 0 0 0 0 0 0 0 0 0 0 0 0 0 0 0 0 0 0 0 0 0 0 0 0 0 0 0 0 0 0 0 0 0 0 0 0 0 0 0 0 0 0 0 0 0 0 0 0 0 0 0 0 0 0 0 0 0 0 0 0 0 0 0 0 0 0 0 0 0 0 0 0 0 0 0 0 0 0 0 0 0 0 0 0 0 0 0 0 0 0 0 0 0 0 0 0 0 0 0 0 1 -2 -1 1 1 2 1 1 1 2 2 2 3 2 1 1 1 0 -1 -1 0 0 1 3 4 3 0 0 -1 -1 -1 -2 -2 -1 -1 -1 -1 -1 -1 -1 -2 -2 -2 -1 -1 -2 -2 -2 -1 -1 -2 -2 -1 -1 -1 -1 -1 -1 -1 0 0 0 -2 -2 -1 -1 -1 -2 -1 0 0 -1 -2 -2 -2 -2 -2 -2 -2 -2 -1 -2 -3 -2 -2 0 0 0 0 0 -1 0 0 0 0 -1 -1 -2 -2 -1 -1 -1 -1 0 1 0 0 0 0 0 -1 -1 -1 -1 0 0 -1 0 -1 -1 -1 -1 -2 -2 -2 -1 0 1 2 1 0 0 0 0 0 0 1 1 1 1 1 1 1 1 -1 -2 -2 -2 -1 0 0 0 0 0 -1 0 -1 -1 -1 0 1 0 0 1 2 1 1 2 2 0 0 -1 -1 0 0 0 -1 -2 -1 0 0 0 -1 -1 -3 -4 -1 1 3 5 5 4 6 6 4 3 3 3 2 1 0 1 0 1 1 2 2 1 -1 -2 -1 -1 -1 1 1 0 0 1 0 -1 0 1 0 -2 -2 -1 0 1 1 1 1 0 0 0 1 0 -1 0 1 1 2 1 0 1 1 0 -1 -1 0 0 0 0 0 0 -1 -1 -2 -2 -1 0 1 2 2 3 4 3 2 1 1 1 0 -1 -2 -3 -2 -1 0 0 0 1 1 1 1 0 1 1 2 1 1 1 1 1 1 -1 -1 0 1 1 0 1 0 -1 -1 -1 -1 -1 -1 0 0 -1 -2 -2 0 1 1 1 0 1 1 0 0 0 1 0 0 1 1 0 -1 -1 0 0 1 1 0 0 0 1 2 0 -1 -1 0 0 0 1 2 1 0 0 1 0 -1 -2 -2 -2 -1 0 0 0 0 0 1 1 1 1 1 0 0 -1 -2 -3 0 0 1 0 1 1 1 0 0 0 1 2 4 6 7 6 3 2 1 1 0 -1 -1 0 1 1 1 0 0 0 0 0 -1 -1 0 0 0 0 0 0 0 0 1 2 0 -1 -1 -1 -1 -1 -1 -1 0 0 0 0 0 -1 -1 -1 -1 0 1 1 1 1 0 -1 -1 0 0 1 1 0 0 0 -1 -1 -1 -1 -1 -1 -1 -1 0 0 0 0 0 1 1 1 2 0 -1 -1 -1 -1 -1 0 0 -1 -1 0 2 2 2 3 2 1 0 0 0 1 0 -1 -1 0 2 4 4 5 4 4 5 5 4 4 4 3 1 0 0 0 0 -1 0 0 0 1 1 2 2 2 2 1 0 1 2 2 1 2 3 3 4 4 4 3 3 2 2 3 2 2 3 3 4 4 6 8 9 9 9 9 10 9 9 9 10 9 9 10 9 9 9 8 9 9 9 8 8 6 6 6 6 6 6 5 4 4 3 3 4 4 1 1 2 3 4 3 1 0 -1 -1 -1 0 1 3 3 3 2 1 1 1 0 1 1 1 0 0 1 1 0 1 2 2 1 2 3 3 2 1 -1 -2 -2 -1 -1 -2 -1 -1 -1 -1 -1 -1 -1 0 0 -1 -2 -1 0 1 -1 -3 -2 -1 0 -1 -1 -1 0 1 0 0 1 3 2 1 0 -1 -2 -2 -2 -2 -1 -1 -2 -2 -2 -2 -1 -2 -2 -1 -1 -1 -1 -1 -1 -1 -1 -1 -1 -1 -1 -2 -2 -2 -2 -1 1 1 1 1 2 2 4 5 6 6 5 5 4 4 4 5 5 5 6 5 4 4 4 4 4 5 6 5 6 6 7 8 8 8 9 10 10 11 11 11 13 15 16 16 15 14 14 14 14 15 16 17 16 15 15 16 17 17 17 17 18 18 17 17 18 19 19 19 20 24 30 32 34 34 33 32 31 30 29 29 31 31 31 31 28 25 25 25 24 23 22 22 22 21 21 22 23 23 23 25 26 28 30 30 30 30 30 30 31 31 31 31 32 31 31 30 29 29 29 30 29 28 28 28 29 29 31 32 33 34 35 36 37 37 39 40 41 40 41 43 48 51 56 57 56 58 58 57 52 45 40 41 40 40 42 46 51 55 57 57 57 56 56 57 57 59 62 64 64 63 63 62 62 62 63 62 62 62 63 63 62 60 59 59 59 60 60 60 62 63 65 67 68 69 68 66 64 61 59 59 58 57 56 54 53 53 52 51 50 49 48 48 48 47 45 44 43 42 42 42 41 40 40 39 38 38 38 39 38 37 36 36 36 36 36 36 36 35 34 32 31 31 31 32 32 33 33 33 32 31 29 28 28 30 31 31 29 29 28 28 29 28 28 29 28 27 27 27 27 27 26 27 28 28 29 30 31 31 32 34 35 35 37 38 38 37 36 35 33 33 34 33 33 34 35 36 0 0 0 0 0 0
0 0 0 0 0 0 0 0 0 0 0 0 0 0 0 0 0 0 0 0 0 0 0 0 0 0 0 0 0 0 0 0 0 0 0 0 0 0 0 0 0 0 0 0 0 0 0 0 0 0 0 0 0 0 0 0 0 0 0 0 0 0 0 0 0 0 0 0 0 0 0 0 0 0 0 0 0 0 0 0 0 0 0 0 0 0 0 0 0 0 0 0 0 0 0 0 0 0 0 0 0 0 0 0 0 0 0 0 0 0 0 0 0 0 0 0 0 0 0 0 0 0 0 0 0 0 0 0 0 0 0 0 0 0 0 0 0 0 0 0 0 0 0 0 0 0 0 0 0 0 0 0 0 0 0 0 0 0 0 0 0 0 0 0 0 0 0 0 0 0 0 0 0 0 0 0 0 0 0 0 0 0 0 0 0 0 0 0 0 0 0 0 0 0 0 0 0 0 0 0 0 0 0 0 0 0 0 0 0 0 0 0 0 0 0 0 0 0 0 0 0 0 0 0 0 0 0 0 0 0 0 0 0 0 0 0 0 0 0 0 0 0 0 0 0 0 0 0 0 0 1 1 -1 1 1 1 1 0 0 1 1 2 2 2 2 2 1 -1 -2 -1 0 0 1 2 4 3 0 0 0 0 0 -1 -2 -1 -2 -2 -1 -1 -1 -1 -1 -2 -2 -1 0 -1 -2 -2 -2 -1 -2 -1 -1 -1 -1 -1 -1 -1 -1 0 0 -1 -1 -1 -1 -1 -1 -1 -2 -1 -1 -1 -1 -1 -2 -2 -2 -2 -2 -2 -2 -3 -3 -2 -1 0 1 0 0 0 0 1 1 0 0 -1 -2 -2 -2 -2 -1 -1 -1 0 1 0 -1 -1 -1 -1 -1 -1 -1 -1 0 0 -1 0 -1 -2 -2 -1 -2 -2 -2 -1 0 1 2 1 0 0 1 1 0 0 0 1 1 2 2 1 1 0 0 -1 -1 -1 -1 -1 0 0 0 0 -1 0 -1 -2 -2 -1 0 0 -1 0 1 2 1 1 1 0 0 -1 -1 -1 0 0 0 0 0 2 2 2 0 -1 -3 -4 -1 1 3 5 6 6 7 7 5 4 3 3 2 1 0 1 0 0 0 1 2 1 0 -1 -1 -1 -1 1 0 -1 -1 0 -1 -1 0 0 0 -1 -1 1 1 1 1 1 1 0 0 0 0 0 0 0 1 1 1 2 1 1 1 0 -1 -1 -1 -1 0 0 0 0 0 -1 -1 -1 0 1 1 1 1 2 2 1 1 1 1 2 0 -2 -2 -2 -2 -1 -1 0 0 1 2 2 2 1 0 0 0 0 0 0 1 1 0 -2 -1 0 0 0 0 1 1 0 0 -1 -2 -2 -1 0 0 -1 -2 -1 0 1 0 1 1 1 1 0 0 0 1 0 0 0 0 0 -1 -1 0 0 1 1 0 -1 -1 0 1 0 -1 -1 0 0 0 1 2 1 0 0 0 0 -1 -2 -2 -2 -1 0 0 -1 0 0 1 1 1 1 1 0 1 1 0 -1 0 0 0 0 0 0 1 1 0 0 0 1 3 5 4 3 2 1 0 1 0 -1 -2 -1 1 1 1 1 1 1 0 0 0 0 0 0 -1 -1 -1 1 1 0 0 1 1 0 -1 -1 0 -1 -1 -1 -1 -1 0 1 0 -1 -1 -1 -1 -1 0 0 0 0 0 0 1 0 0 0 1 0 0 0 -1 -1 -1 -1 0 -1 -1 -1 -1 0 0 1 1 0 1 1 2 1 -1 0 0 0 0 0 0 -1 -2 -1 1 2 1 1 1 1 0 1 1 1 -1 -2 -2 -1 1 3 3 4 4 4 4 4 3 4 3 2 0 0 0 0 0 0 0 0 0 1 0 1 1 1 1 1 1 1 2 3 3 3 3 2 2 2 2 3 3 2 1 2 1 1 3 4 5 4 6 7 8 8 8 8 9 8 8 8 9 9 9 9 9 9 9 9 10 10 9 10 9 6 5 6 6 6 5 4 3 3 2 2 3 4 2 0 0 1 2 2 1 1 1 0 2 2 2 2 2 2 1 1 1 1 1 1 1 1 1 1 2 2 1 1 1 0 0 1 2 3 2 1 -1 -2 -1 -1 -1 -2 -2 -1 0 0 -1 -1 -1 0 0 -1 -2 -1 0 1 -1 -3 -3 -2 -1 -1 -1 0 0 1 0 0 2 4 3 1 0 -1 -2 -2 -3 -3 -2 -2 -2 -2 -2 -2 -2 -1 -1 0 0 -1 0 0 0 0 0 -1 -1 -1 -1 -1 -2 -2 -1 -1 0 0 1 1 1 2 3 4 5 5 5 4 3 3 3 4 4 4 5 5 5 6 5 4 4 5 5 5 5 6 7 8 8 8 9 10 10 10 10 11 13 14 15 15 15 15 15 15 15 15 16 16 16 15 16 17 19 18 17 17 18 18 17 17 18 19 20 20 23 28 33 33 34 34 34 33 32 31 28 28 31 30 27 26 24 23 23 24 24 23 21 22 21 21 21 22 23 22 22 24 25 27 29 30 30 29 29 30 31 31 30 31 31 33 33 31 30 30 30 30 30 29 28 29 29 29 30 32 32 33 35 36 37 37 38 39 41 40 39 40 44 47 50 51 52 54 54 52 47 42 39 40 40 40 41 45 50 53 54 55 55 55 56 56 56 58 60 61 61 60 60 60 61 61 60 60 59 59 61 62 61 59 57 57 58 59 60 60 61 62 63 65 67 69 72 73 68 61 59 59 57 56 56 55 54 54 53 51 51 49 49 49 47 46 46 45 44 43 43 42 41 40 40 40 39 39 38 37 37 37 37 37 37 37 37 36 36 35 34 33 32 31 31 31 32 33 33 33 32 31 29 28 28 30 31 31 30 29 27 27 28 28 28 29 28 27 26 27 27 27 27 28 28 29 30 31 32 32 32 34 36 37 38 39 38 37 35 34 32 32 33 34 34 34 35 36 0 0 0 0 0 0
0 0 0 0 0 0 0 0 0 0 0 0 0 0 0 0 0 0 0 0 0 0 0 0 0 0 0 0 0 0 0 0 0 0 0 0 0 0 0 0 0 0 0 0 0 0 0 0 0 0 0 0 0 0 0 0 0 0 0 0 0 0 0 0 0 0 0 0 0 0 0 0 0 0 0 0 0 0 0 0 0 0 0 0 0 0 0 0 0 0 0 0 0 0 0 0 0 0 0 0 0 0 0 0 0 0 0 0 0 0 0 0 0 0 0 0 0 0 0 0 0 0 0 0 0 0 0 0 0 0 0 0 0 0 0 0 0 0 0 0 0 0 0 0 0 0 0 0 0 0 0 0 0 0 0 0 0 0 0 0 0 0 0 0 0 0 0 0 0 0 0 0 0 0 0 0 0 0 0 0 0 0 0 0 0 0 0 0 0 0 0 0 0 0 0 0 0 0 0 0 0 0 0 0 0 0 0 0 0 0 0 0 0 0 0 0 0 0 0 0 0 0 0 0 0 0 0 0 0 0 0 0 0 0 0 0 0 0 0 0 0 0 0 0 0 0 0 0 0 0 0 1 0 1 1 0 0 -1 0 0 1 1 1 0 0 0 0 -1 -2 -1 0 0 1 2 3 2 2 2 2 2 1 -1 -2 -2 -2 -2 -1 -1 -1 -1 -2 -2 -2 -2 -1 -1 -2 -2 -1 -1 -1 -1 -1 -2 -2 -2 -1 0 -1 -1 -2 -2 -2 0 0 0 0 -1 -1 -1 -1 -1 -1 -1 -1 -2 -2 -2 -2 -2 -2 -1 -1 -1 -1 0 0 1 1 1 2 2 1 0 -1 -2 -2 -2 -1 0 0 0 -1 -1 0 0 -1 -1 -1 -1 -2 -1 -1 0 0 0 -1 -1 -1 -1 -1 -1 -2 -1 -1 0 -1 0 1 0 -1 0 1 1 -1 -1 0 -1 0 1 1 1 0 -1 0 1 1 1 0 0 1 0 0 0 0 0 0 -1 -1 -2 -2 0 1 1 0 0 0 0 0 1 1 1 0 0 0 1 1 0 0 2 3 3 2 2 0 -1 0 0 1 2 3 4 5 5 5 4 4 3 3 2 0 0 1 1 0 -1 -1 -1 0 0 0 1 2 1 1 0 0 1 1 0 0 -1 0 0 -1 1 2 1 1 0 -1 -1 0 1 0 -1 0 0 0 0 1 1 1 0 1 0 -1 -1 -1 -2 -2 -2 -1 -1 0 1 1 2 2 1 0 0 0 -1 -1 0 0 0 1 1 0 -1 -1 -2 -2 -1 -1 0 0 -1 0 0 0 -1 -1 -1 -1 0 -1 -1 -1 -2 -2 -1 0 1 0 0 0 1 1 0 -1 0 -1 -1 0 0 0 0 -1 -2 -1 0 0 0 1 2 1 0 0 0 1 1 1 1 0 0 0 0 0 0 0 -1 -1 -1 -1 -1 -1 0 0 1 0 0 1 0 0 0 -1 -1 0 1 1 0 0 -1 -2 -1 0 1 1 1 0 0 1 1 1 1 2 3 2 1 1 0 0 0 -1 -1 -1 0 0 0 1 2 2 2 1 1 0 0 0 0 -1 -1 -2 -1 0 0 0 -1 -1 0 0 0 -1 -1 -1 -1 -1 -2 -2 -2 -1 0 1 0 1 0 -1 -1 0 0 0 0 0 -1 0 0 0 0 -1 0 -1 -1 0 0 1 1 0 0 1 0 -1 -1 -1 0 0 0 0 0 -1 -1 -1 -1 -1 -1 0 0 0 0 0 0 1 2 2 2 1 1 1 1 1 1 1 0 0 1 1 1 -1 -2 -1 -1 0 1 1 0 -2 -3 -1 1 2 3 4 5 4 5 5 3 2 2 3 2 1 0 0 0 0 -1 -1 -1 0 0 -1 -1 -2 -1 0 1 2 1 0 1 2 1 2 1 0 0 1 1 1 0 -1 -1 1 1 1 2 4 5 5 6 7 6 6 6 5 6 7 7 8 9 9 7 7 7 8 9 10 10 10 11 9 6 5 5 5 6 5 4 3 2 1 1 1 1 2 2 1 0 0 0 1 3 3 0 1 3 1 -1 -1 0 1 1 0 0 1 0 0 1 1 1 1 2 2 1 1 0 0 1 1 0 0 0 -1 -1 -1 -1 -1 -1 -1 0 0 -1 -2 -2 -2 -1 -1 -2 -3 -2 0 0 -1 -2 -2 -2 -2 0 1 1 0 0 0 0 1 3 2 0 -1 -2 -2 -2 -2 -2 -1 -1 -2 -2 -2 -2 -1 0 1 0 -1 0 0 0 2 2 1 1 1 1 0 -1 -1 -1 0 0 0 0 1 2 2 2 2 3 4 4 4 3 3 3 4 4 4 4 5 6 6 7 6 6 6 6 6 5 7 8 8 8 8 8 9 9 9 11 12 13 13 13 13 13 13 13 14 15 15 15 15 15 14 15 16 18 19 18 18 18 19 20 20 19 19 20 21 24 27 31 32 32 33 34 34 33 32 30 28 29 32 33 28 26 24 23 23 23 24 24 25 23 21 20 20 20 21 21 21 22 23 25 27 28 29 28 28 29 32 33 33 32 32 32 32 32 32 32 32 31 30 30 29 30 29 29 29 31 32 32 33 33 34 35 35 36 37 37 37 37 37 37 37 38 40 40 40 40 39 38 37 38 39 40 41 43 46 47 47 47 48 51 53 55 55 55 54 54 55 56 56 55 56 57 58 58 58 58 59 60 60 59 60 61 64 66 67 68 69 68 67 66 68 70 71 72 71 65 60 59 57 56 56 54 53 52 53 52 51 49 49 49 48 46 45 44 44 43 42 41 42 42 42 42 42 40 38 38 38 38 38 38 38 39 38 36 35 35 35 34 33 33 33 32 32 33 33 32 32 32 31 30 31 31 31 32 30 30 29 30 30 29 28 28 28 28 27 27 27 27 27 28 29 30 32 33 34 35 35 36 36 36 37 36 36 37 35 34 33 34 35 35 35 35 35 37 0 0 0 0 0 0
0 0 0 0 0 0 0 0 0 0 0 0 0 0 0 0 0 0 0 0 0 0 0 0 0 0 0 0 0 0 0 0 0 0 0 0 0 0 0 0 0 0 0 0 0 0 0 0 0 0 0 0 0 0 0 0 0 0 0 0 0 0 0 0 0 0 0 0 0 0 0 0 0 0 0 0 0 0 0 0 0 0 0 0 0 0 0 0 0 0 0 0 0 0 0 0 0 0 0 0 0 0 0 0 0 0 0 0 0 0 0 0 0 0 0 0 0 0 0 0 0 0 0 0 0 0 0 0 0 0 0 0 0 0 0 0 0 0 0 0 0 0 0 0 0 0 0 0 0 0 0 0 0 0 0 0 0 0 0 0 0 0 0 0 0 0 0 0 0 0 0 0 0 0 0 0 0 0 0 0 0 0 0 0 0 0 0 0 0 0 0 0 0 0 0 0 0 0 0 0 0 0 0 0 0 0 0 0 0 0 0 0 0 0 0 0 0 0 0 0 0 0 0 0 0 0 0 0 0 0 0 0 0 0 0 0 0 0 0 0 0 0 0 0 0 0 0 0 0 0 0 1 1 0 0 -1 -1 -1 0 1 1 0 0 1 0 0 0 0 -1 0 0 1 1 1 1 2 3 3 2 2 2 1 0 -1 -1 0 -1 -2 -2 -1 -2 -2 -2 -2 -1 -2 -2 -2 -1 -1 0 0 -1 -2 -2 -2 -2 -1 0 0 -1 -2 -2 -1 -1 -1 -1 -1 -1 -1 -1 0 -1 -2 -1 -2 -2 0 0 0 0 0 0 -1 0 0 -1 0 0 0 0 0 0 0 -1 -1 -1 -1 -1 0 0 0 0 0 1 2 1 0 -1 -2 -2 -2 -1 0 0 -1 -1 -1 -1 -1 -1 -1 -1 -1 -1 -1 -1 0 0 0 0 1 2 1 -1 -1 -1 -1 -1 0 1 0 0 0 0 1 0 0 0 1 0 0 0 0 -1 -1 0 0 0 0 1 2 3 2 1 0 -2 -2 0 0 0 -1 0 0 0 0 0 -1 -1 1 3 3 4 4 1 0 2 3 2 1 2 2 1 1 2 3 3 3 3 2 1 1 2 1 1 0 -1 0 1 1 1 0 1 0 0 1 1 2 2 1 0 -1 -1 -1 -1 -1 -1 0 0 0 -1 -1 0 0 0 1 1 1 1 1 1 2 1 0 1 1 0 0 0 0 0 0 0 0 0 0 1 2 2 1 1 0 0 0 0 1 1 1 1 0 -1 -2 -2 -1 -1 -1 -1 0 1 1 1 0 0 -1 0 0 1 -1 -2 -1 -1 -1 0 1 1 1 0 0 1 1 1 0 -1 -2 -2 -1 1 1 0 -1 -2 -1 0 0 0 0 1 0 1 1 1 1 1 1 1 0 0 0 0 -1 0 0 1 0 0 0 -1 -2 -2 -1 0 0 0 0 0 0 0 0 0 1 1 2 1 0 0 0 -1 -1 0 1 0 0 0 0 0 0 0 0 -1 -1 0 0 1 1 0 -1 0 0 -1 -1 -1 0 1 1 1 0 0 1 1 1 0 -1 0 0 0 0 0 0 0 0 0 0 0 -1 -1 0 0 1 1 0 -1 0 0 1 0 0 0 0 0 0 0 1 1 1 0 0 0 0 0 0 0 1 1 1 1 1 1 0 0 0 0 0 0 -1 0 1 1 1 0 0 0 0 0 -1 0 1 0 0 0 0 0 1 2 2 1 0 1 1 0 0 -1 -2 -1 0 0 0 -1 -1 -1 -1 -2 -2 -1 0 0 -1 -1 -1 1 1 2 4 4 5 5 5 5 3 2 2 2 2 1 0 -1 -2 -2 -2 -2 -1 0 0 0 -1 -2 -2 -2 -1 0 1 1 1 1 2 2 0 0 0 1 0 -1 0 1 0 0 2 3 3 3 4 4 5 6 6 6 5 6 7 7 7 8 8 9 10 10 10 9 8 8 9 9 9 8 7 6 4 4 3 4 5 4 3 2 0 -1 1 2 2 2 2 0 -2 -1 0 -1 -1 1 2 0 -1 -1 0 0 0 0 -1 -1 -1 0 1 0 0 1 2 2 1 2 2 3 2 1 -1 -1 -1 -1 -1 -1 0 -1 -1 -1 -1 -1 -2 -3 -3 -3 -3 -3 -3 -2 -2 -3 -2 -2 -1 -1 0 0 0 1 2 1 0 -1 -2 -2 -2 -2 -2 -2 -2 -2 -2 -2 -1 -1 -1 -2 -2 -2 -1 -1 0 0 0 1 2 1 0 1 1 1 1 1 0 -1 -2 -1 -1 0 -1 -1 -1 -1 0 1 1 0 1 2 2 2 3 2 2 2 3 4 4 4 5 4 5 6 7 7 7 7 7 8 8 8 8 8 8 9 9 9 10 10 11 11 11 11 11 11 11 13 14 14 15 13 12 14 15 16 17 18 19 19 19 20 21 21 21 21 21 22 23 27 30 32 32 33 32 31 32 33 33 31 29 30 30 26 25 24 24 24 25 25 24 23 21 20 21 21 21 23 24 24 24 24 24 25 26 27 28 28 29 30 31 31 32 33 33 32 33 33 33 33 32 31 30 29 29 29 29 28 29 31 31 32 32 33 33 32 32 33 32 32 33 34 34 34 35 36 37 37 38 38 39 39 39 38 38 40 43 44 44 45 46 46 46 46 48 49 51 52 52 52 52 52 52 51 52 54 55 55 56 56 57 60 64 66 67 68 72 75 75 76 77 75 71 69 68 66 65 66 64 61 60 58 56 54 53 52 52 50 50 50 48 47 47 48 46 45 45 44 43 42 42 41 41 41 41 42 42 41 42 42 41 41 40 39 38 38 37 37 37 36 35 35 34 34 34 33 33 33 32 32 32 32 31 30 30 30 30 30 30 30 30 30 29 29 29 29 29 28 28 28 28 29 29 30 32 33 33 34 36 37 38 36 36 35 34 34 34 33 33 34 35 35 36 36 36 38 39 0 0 0 0 0 0
0 0 0 0 0 0 0 0 0 0 0 0 0 0 0 0 0 0 0 0 0 0 0 0 0 0 0 0 0 0 0 0 0 0 0 0 0 0 0 0 0 0 0 0 0 0 0 0 0 0 0 0 0 0 0 0 0 0 0 0 0 0 0 0 0 0 0 0 0 0 0 0 0 0 0 0 0 0 0 0 0 0 0 0 0 0 0 0 0 0 0 0 0 0 0 0 0 0 0 0 0 0 0 0 0 0 0 0 0 0 0 0 0 0 0 0 0 0 0 0 0 0 0 0 0 0 0 0 0 0 0 0 0 0 0 0 0 0 0 0 0 0 0 0 0 0 0 0 0 0 0 0 0 0 0 0 0 0 0 0 0 0 0 0 0 0 0 0 0 0 0 0 0 0 0 0 0 0 0 0 0 0 0 0 0 0 0 0 0 0 0 0 0 0 0 0 0 0 0 0 0 0 0 0 0 0 0 0 0 0 0 0 0 0 0 0 0 0 0 0 0 0 0 0 0 0 0 0 0 0 0 0 0 0 0 0 0 0 0 0 0 0 0 0 0 0 0 0 0 0 0 1 1 0 0 -1 -1 0 1 1 0 0 0 0 0 0 -1 0 -1 0 -1 0 1 0 -1 0 0 0 0 1 1 2 1 0 0 0 -1 -1 -1 0 -1 -2 -2 -2 -2 -2 -1 -1 -2 -2 -1 -1 -1 -1 -1 -1 -1 -1 -1 -1 -2 -2 -1 0 -1 -1 -1 -1 -1 -1 -1 -1 -1 -2 -1 -1 -1 1 1 2 0 -1 -2 -2 -1 0 0 0 0 0 0 0 0 0 0 -1 -1 -1 -1 -1 0 0 1 0 0 0 0 0 -1 -1 -1 -1 -1 -1 0 0 -1 -1 -1 -2 -1 0 0 -1 -1 -1 -1 0 1 2 1 1 1 0 -2 -2 -2 -2 -1 -1 -1 0 2 2 1 1 0 0 0 1 1 0 1 0 -1 -1 0 0 0 0 1 1 2 1 0 -1 0 -1 0 0 0 1 1 0 -1 -1 0 1 0 -1 -1 -1 1 2 2 2 2 2 2 2 3 2 2 2 2 2 1 2 3 2 1 1 1 1 1 0 -1 -1 -1 0 -1 -3 -1 1 1 -1 -1 0 1 2 2 1 0 0 0 0 0 -1 -1 0 -1 -1 0 0 -1 -1 0 1 1 1 1 1 0 0 1 1 1 1 0 0 1 1 0 -1 0 1 1 1 1 0 -1 -1 -1 0 1 1 1 1 1 0 0 0 1 0 0 -1 -1 0 1 2 1 1 1 1 2 2 1 -1 -2 -1 0 1 1 1 1 1 1 1 0 1 0 0 0 -1 -1 -1 -1 -1 -1 -1 0 0 1 1 2 1 1 0 0 1 1 2 1 0 -1 0 1 0 -1 0 1 1 1 1 1 1 1 0 0 0 1 1 1 1 0 0 0 0 0 0 0 1 0 0 0 0 1 0 0 0 -1 -1 0 0 0 -1 -1 -2 -1 -1 0 0 0 0 0 0 -1 -1 0 1 0 -1 -1 0 0 0 -1 0 0 0 0 0 0 0 0 0 0 0 0 0 0 0 1 1 1 0 -1 -1 0 0 -2 -2 -2 -1 -2 -2 0 1 2 2 1 0 0 0 0 -1 -1 0 0 -1 -1 0 1 2 1 1 1 0 -1 0 1 1 0 -1 -1 0 0 -1 -1 0 1 2 1 0 1 0 -1 -1 -1 0 1 0 -1 -1 0 0 0 0 -1 -1 -1 -1 -1 0 -1 0 0 -1 -2 -2 -1 -1 -2 -1 -1 -1 -1 0 2 2 3 4 5 6 5 4 3 2 1 2 2 2 2 0 0 1 1 -1 -2 -2 -2 -1 0 -1 -2 -2 -3 -4 -2 -1 0 0 0 1 0 -1 -1 -1 0 0 -1 -2 -1 0 -2 -2 -1 -1 0 1 1 2 4 5 7 7 7 6 6 6 7 8 9 11 10 9 8 8 8 8 7 7 7 5 4 5 4 3 2 3 1 1 2 2 1 1 0 0 0 0 0 0 0 -1 -2 -1 0 1 0 -2 -2 -2 -1 0 0 -1 -1 -1 0 0 -1 -1 0 1 2 1 1 1 1 0 -1 -1 -1 -1 -1 0 -1 -1 0 -1 -2 -2 -2 -2 -2 -2 -1 -1 -2 -2 -3 -2 -2 -2 -2 -1 -1 0 -1 -1 -1 0 0 0 -1 -2 -2 -3 -3 -3 -2 -2 -3 -2 -2 -2 -2 -3 -2 -2 -2 -1 -1 0 0 0 0 0 0 0 0 0 1 1 1 0 0 1 1 0 -1 -1 -1 -1 0 -1 -1 0 0 0 1 1 1 1 1 1 2 3 4 4 4 5 5 5 6 6 6 6 7 7 8 8 8 8 8 8 9 8 8 8 8 9 9 10 11 11 11 11 11 13 13 14 14 14 15 16 15 16 17 18 19 20 21 22 22 21 21 21 21 22 25 28 30 30 30 28 27 28 29 29 29 29 27 25 23 23 22 22 21 23 24 24 24 23 21 20 20 22 24 25 26 26 25 26 26 26 27 30 30 31 30 31 32 32 33 34 35 34 34 34 34 33 33 33 33 33 32 31 30 30 30 30 31 32 32 33 32 31 32 33 34 34 34 34 35 37 38 38 39 39 38 38 40 41 40 40 40 41 42 42 43 44 43 44 46 46 46 48 49 50 51 51 51 51 53 55 55 53 53 54 55 56 59 64 66 69 72 73 73 73 74 73 73 71 68 66 62 62 60 58 57 57 55 53 51 50 51 51 49 47 46 46 47 47 47 45 44 44 43 42 41 41 42 43 43 42 41 42 43 43 43 43 43 42 41 40 40 39 38 38 37 37 36 35 34 34 34 34 34 33 33 34 35 34 34 33 33 33 32 32 31 30 30 30 30 29 29 28 27 28 28 28 29 30 30 32 34 34 34 35 35 35 34 34 33 34 34 33 33 33 34 35 35 35 35 36 37 38 0 0 0 0 0 0
0 0 0 0 0 0 0 0 0 0 0 0 0 0 0 0 0 0 0 0 0 0 0 0 0 0 0 0 0 0 0 0 0 0 0 0 0 0 0 0 0 0 0 0 0 0 0 0 0 0 0 0 0 0 0 0 0 0 0 0 0 0 0 0 0 0 0 0 0 0 0 0 0 0 0 0 0 0 0 0 0 0 0 0 0 0 0 0 0 0 0 0 0 0 0 0 0 0 0 0 0 0 0 0 0 0 0 0 0 0 0 0 0 0 0 0 0 0 0 0 0 0 0 0 0 0 0 0 0 0 0 0 0 0 0 0 0 0 0 0 0 0 0 0 0 0 0 0 0 0 0 0 0 0 0 0 0 0 0 0 0 0 0 0 0 0 0 0 0 0 0 0 0 0 0 0 0 0 0 0 0 0 0 0 0 0 0 0 0 0 0 0 0 0 0 0 0 0 0 0 0 0 0 0 0 0 0 0 0 0 0 0 0 0 0 0 0 0 0 0 0 0 0 0 0 0 0 0 0 0 0 0 0 0 0 0 0 0 0 0 0 0 0 0 0 0 0 0 0 0 0 1 0 -1 -1 -1 -1 0 -1 -1 0 0 0 0 1 1 1 0 0 1 0 -1 0 0 1 1 1 1 1 1 2 3 2 1 -1 0 -1 -2 -2 -2 -2 -2 -2 -2 -1 -1 -1 -1 -1 -1 -1 -1 -1 -1 -1 -1 -1 -1 0 -1 0 0 0 0 -1 -1 -1 -1 -1 0 -1 -1 -1 -1 -2 -1 -1 0 0 0 0 1 0 0 0 0 -1 0 1 1 0 -1 -1 -1 0 -1 -1 -1 -1 -2 -1 -1 -1 -2 -2 -2 -1 0 0 -1 0 1 1 1 0 0 -1 -2 -3 -2 -1 -1 0 -1 -1 0 0 0 0 0 0 1 1 0 0 0 0 1 2 1 1 1 1 2 2 1 0 0 0 0 1 1 1 0 -1 1 1 0 0 0 1 1 1 0 0 0 0 0 0 0 0 1 1 0 -1 -1 -1 0 0 -1 0 0 1 1 2 1 0 0 0 0 1 1 1 1 1 1 1 1 2 2 1 1 2 2 2 1 0 0 0 1 2 1 1 3 3 2 2 1 0 0 1 0 -1 0 0 0 0 1 1 0 -1 -1 0 0 -1 -1 -1 0 0 0 1 1 0 0 1 1 2 2 1 1 1 1 1 0 0 1 0 0 0 0 0 1 1 1 1 0 1 0 0 1 1 1 1 1 1 0 0 0 0 1 1 0 0 0 1 1 2 1 0 1 1 1 1 1 0 0 0 0 0 1 1 1 1 0 0 1 -1 -1 -1 0 1 2 2 2 2 2 2 1 0 0 0 0 0 0 1 1 2 2 1 1 1 1 1 2 2 1 1 1 0 0 0 0 -1 -1 0 0 1 1 1 0 0 0 0 -2 -2 -1 0 0 0 -1 -1 0 0 0 0 0 0 0 0 0 -1 0 1 1 1 1 0 0 2 3 2 0 0 1 0 -1 -1 0 0 0 0 0 -1 -1 0 0 1 1 0 0 0 0 0 0 0 0 -1 -1 -1 0 -1 -2 -2 -2 -2 -2 -1 0 0 0 0 -1 0 0 0 -1 -2 -1 0 -1 0 1 1 1 0 0 -1 0 1 1 2 2 3 1 -1 -1 -1 0 0 0 0 0 0 0 1 1 -1 -1 -1 0 1 1 0 0 1 0 0 0 -1 -1 -1 0 0 1 0 -1 0 0 -1 -3 -1 -1 0 -1 0 1 1 1 0 1 2 3 3 3 2 3 2 1 2 3 1 0 1 1 1 1 2 1 0 -1 0 0 1 -1 -2 -2 -2 -3 -3 -2 -2 -2 -2 -3 -3 -1 0 0 -1 0 -1 -2 -1 0 -1 0 1 1 2 3 3 2 3 4 4 5 6 7 7 7 8 8 8 10 10 9 8 7 8 7 7 7 7 5 5 5 5 4 3 3 2 1 0 1 1 2 2 2 2 1 0 1 2 1 0 -1 -1 0 1 1 0 -1 -2 -2 -1 -1 -1 0 0 -1 -1 -1 -1 0 1 1 1 0 -1 -2 -2 0 -1 -1 -1 0 0 -1 0 0 -1 -1 -1 0 -1 -1 0 0 -1 -2 -2 -1 0 0 -1 -2 -2 -2 -1 -1 -1 -1 -1 -1 -1 -2 -1 -2 -2 -2 -2 -1 -1 -1 -1 -2 -3 -2 -2 -2 -2 -2 -1 0 1 1 1 1 1 1 1 1 1 1 1 1 1 1 0 0 0 0 0 0 1 1 1 2 1 1 1 1 0 0 2 2 4 5 6 6 6 5 5 6 6 6 6 6 7 7 8 8 9 9 8 8 8 8 8 8 9 8 8 8 9 10 11 11 11 11 11 12 13 15 16 16 16 17 19 20 21 21 21 21 22 21 22 23 26 28 28 27 26 26 26 27 28 27 24 23 23 23 23 23 22 21 20 20 20 22 23 24 23 23 22 22 22 21 23 25 25 24 25 27 28 28 29 29 29 30 30 31 31 31 32 33 34 35 35 35 35 34 35 35 34 33 33 33 33 33 33 33 33 33 34 35 35 34 34 35 36 37 37 36 35 34 36 38 39 39 39 41 43 43 42 42 41 41 41 40 41 43 44 45 45 45 46 49 50 49 50 49 50 54 55 53 51 52 52 52 52 54 55 56 58 62 63 64 64 65 67 68 68 67 65 63 61 60 58 56 54 54 54 54 52 51 49 48 46 47 48 47 47 47 46 45 45 45 43 42 43 43 43 43 42 41 40 41 42 43 43 43 42 42 42 42 41 39 38 38 37 36 36 36 36 35 35 34 34 33 32 32 32 32 32 33 33 33 34 33 32 31 30 30 30 30 29 26 26 26 26 26 27 28 28 30 32 34 35 35 34 32 32 32 33 34 34 33 32 33 33 35 35 35 35 36 37 38 0 0 0 0 0 0
