ncols        1103
nrows        30
xllcorner    10.2853037908
yllcorner    54.2856287925
cellsize     0.000507755510
41 43 45 45 44 42 41 39 38 37 36 35 38 40 39 39 38 38 39 37 36 35 36 38 40 45 50 50 53 55 57 58 57 55 48 46 48 48 47 45 45 46 47 46 45 47 49 54 59 60 60 61 62 63 63 65 67 70 73 76 78 78 78 78 79 78 76 74 73 72 71 67 58 55 51 49 48 48 46 44 42 46 51 53 54 53 49 47 46 46 48 49 50 49 47 44 45 45 44 43 42 42 42 42 42 41 40 40 39 37 35 33 33 35 36 36 34 32 32 34 34 35 36 35 34 35 36 37 38 39 40 40 43 47 50 50 50 50 51 50 51 50 51 51 52 53 54 55 55 56 54 55 57 56 51 49 45 40 38 37 38 39 37 34 34 35 35 35 35 35 36 36 37 37 38 39 41 42 42 40 39 39 39 39 39 39 41 42 42 43 43 43 44 45 46 47 48 49 50 48 45 45 44 44 44 43 42 42 41 42 44 46 47 47 47 45 43 42 43 44 44 44 44 40 40 41 38 34 34 34 34 34 34 34 34 34 34 34 34 34 34 34 34 34 34 34 34 34 34 34 34 34 34 34 34 34 34 34 34 34 34 34 34 34 34 34 34 34 34 34 34 34 34 34 34 34 34 34 34 34 34 34 34 34 34 34 34 34 34 34 34 34 34 34 34 34 34 34 34 34 34 34 34 34 34 34 34 34 34 34 34 34 34 34 34 34 34 34 34 34 34 34 34 34 34 34 34 34 34 34 34 34 34 34 34 34 34 34 34 34 34 34 34 34 34 34 34 34 34 34 34 34 34 34 34 34 34 34 34 34 34 34 34 34 34 34 34 34 34 34 34 34 34 34 34 34 34 34 34 34 34 34 34 34 34 34 34 34 34 34 34 34 34 34 34 34 34 34 34 34 34 34 34 34 35 36 36 36 37 37 36 34 34 35 36 38 39 40 40 41 42 44 40 40 41 41 39 36 34 34 34 34 34 34 34 34 34 36 40 40 39 39 40 41 42 43 42 41 38 38 37 35 33 34 34 37 40 41 43 48 50 55 57 58 57 54 52 46 41 40 39 40 41 42 43 44 45 45 45 44 44 47 50 50 51 53 55 58 60 61 62 62 62 62 62 62 61 62 62 62 61 61 61 61 60 60 59 57 55 52 51 50 51 51 51 50 50 50 50 49 49 51 53 54 56 57 55 54 54 55 57 58 57 54 52 51 50 51 54 59 61 60 57 54 52 51 50 50 50 50 50 48 48 48 48 47 47 47 46 45 44 45 46 46 46 46 47 48 49 50 51 52 53 54 53 53 53 54 54 54 54 53 52 49 48 49 51 52 53 53 54 55 54 54 54 53 53 54 54 53 50 48 46 44 43 41 38 37 36 35 34 32 30 28 25 22 20 15 13 12 11 11 12 13 12 10 7 6 5 4 2 0 -1 -1 -1 -1 0 0 2 3 5 6 8 9 9 10 12 15 19 20 19 18 17 16 16 15 15 14 13 12 11 11 12 14 14 13 13 13 13 12 12 11 11 12 13 13 12 12 12 12 11 12 15 17 17 16 14 11 10 9 9 11 12 13 13 14 14 13 13 11 10 8 7 6 5 4 2 1 1 2 3 3 3 3 2 1 -1 -2 -2 -1 -1 -2 -2 -3 -3 -3 -2 -3 -2 -2 -2 -2 -2 -2 -2 -1 -1 0 0 0 -1 -1 -2 -2 -2 -3 -3 -3 -3 -2 1 3 5 7 8 9 10 9 8 8 9 10 10 10 10 10 9 9 9 9 10 11 12 12 12 12 12 13 12 13 13 13 14 15 14 15 16 16 17 17 16 15 15 16 16 15 16 17 17 17 16 15 16 17 18 19 19 19 19 18 18 19 18 18 18 19 18 19 20 20 20 20 20 21 22 21 21 21 21 21 21 20 20 20 20 19 20 19 19 20 21 21 20 20 19 19 19 18 17 17 18 18 19 20 18 18 18 20 21 21 22 21 21 20 19 18 18 17 17 18 22 25 28 30 30 29 25 17 15 16 19 20 20 20 20 20 20 23 25 24 23 23 23 21 18 15 14 12 13 12 11 10 10 10 11 12 11 9 8 7 7 7 7 6 6 5 3 2 3 4 6 8 8 7 4 4 6 8 10 12 13 13 13 14 15 15 0 0 0 0 0 0 0 0 0 0 0 0 0 0 0 0 0 0 0 0 0 0 0 0 0 0 0 0 0 0 0 0 0 0 0 0 0 0 0 0 0 0 0 0 0 0 0 0 0 0 0 0 0 0 0 0 0 0 0 0 0 0 0 0 0 0 0 0 0 0 0 0 0 0 0 0 0 0 0 0 0 0 0 0 0 0 0 0 0 0 0 0 0 0 0 0 0 0 0 0 0 0 0 0 0 0 0 0 0 0 0 0 0 0 0 0 0 0 0 0 0 0 0 0 0 0 0 0 0 0 0 0 0 0 0 0 0 0 0 0 0 0 0 0 0 0 0 0 0 0 0 0 0 0 0 0 0 0 0 0 0 0 0 0 0 0 0
40 44 46 43 41 39 38 37 36 37 40 38 41 44 42 42 42 43 43 39 37 36 39 42 44 46 48 49 52 56 59 60 61 60 57 55 54 55 56 57 56 54 51 50 50 52 54 57 62 64 64 66 67 68 67 69 71 73 74 73 76 78 79 80 80 79 77 74 73 72 69 62 52 50 47 46 46 47 46 45 46 54 58 58 56 56 55 54 51 49 49 49 48 46 44 45 47 46 43 41 40 40 41 42 41 42 42 40 38 36 35 34 34 34 33 34 33 33 33 35 36 37 38 38 38 38 39 39 40 40 41 41 43 47 48 46 46 48 53 54 53 52 51 51 51 53 55 57 58 57 57 58 59 59 55 55 56 53 51 53 55 56 55 49 39 36 36 36 35 35 35 37 38 39 41 42 40 40 40 40 40 40 39 38 38 38 40 42 42 41 42 44 46 47 47 47 49 49 48 46 45 45 46 46 45 46 49 51 55 56 52 50 50 50 49 44 41 42 44 45 46 46 45 45 45 45 44 42 39 36 34 34 34 34 34 34 34 34 34 34 34 34 34 34 34 34 34 34 34 34 34 34 34 34 34 34 34 34 34 34 34 34 34 34 34 34 34 34 34 34 34 34 34 34 34 34 34 34 34 34 34 34 34 34 34 34 34 34 34 34 34 34 34 34 34 34 34 34 34 34 34 34 34 34 34 34 34 34 34 34 34 34 34 34 34 34 34 34 34 34 34 34 34 34 34 34 34 34 34 34 34 34 34 34 34 34 34 34 34 34 34 34 34 34 34 34 34 34 34 34 34 34 34 34 34 34 34 34 34 34 34 34 34 34 34 34 34 34 34 34 34 34 34 34 34 34 34 34 34 34 34 34 34 34 34 34 34 34 34 34 34 34 34 34 34 34 34 34 34 34 34 34 34 34 34 35 36 37 37 36 35 37 38 38 38 36 34 34 34 34 34 34 34 34 34 34 34 34 34 34 34 34 34 34 34 35 39 40 42 43 41 40 40 41 41 40 40 42 42 42 43 42 39 37 37 39 40 40 41 43 44 46 49 52 54 57 59 59 53 46 43 44 44 44 44 44 46 47 50 50 50 52 53 53 52 54 56 58 60 61 62 63 61 61 60 60 60 62 63 62 61 60 59 59 59 58 57 56 55 53 50 49 49 50 50 49 48 47 47 48 48 48 50 52 54 56 56 56 57 58 60 63 63 59 55 52 52 54 57 65 69 69 66 62 58 54 52 49 49 49 49 49 49 48 46 45 45 46 47 46 45 44 45 46 46 47 49 50 51 52 52 52 53 55 55 55 54 53 52 52 52 52 52 52 53 56 58 58 57 56 57 57 56 56 57 56 54 55 55 53 51 48 45 43 41 39 38 37 36 34 34 32 30 27 23 19 17 14 12 12 12 12 13 13 12 10 8 6 4 2 1 0 0 1 2 2 3 5 7 8 9 10 10 11 11 12 11 14 18 20 19 18 17 17 17 16 16 15 15 14 13 12 13 13 14 14 16 16 16 15 14 13 13 13 12 14 15 15 15 15 15 15 17 18 18 17 16 15 13 13 13 13 14 14 15 14 13 11 10 9 8 6 6 6 6 4 3 3 3 3 2 1 1 1 0 0 0 -1 -1 -1 -2 -3 -3 -4 -4 -4 -3 -3 -3 -2 -2 -2 -1 -1 -1 -1 -1 0 0 1 0 -1 -2 -3 -2 -1 -3 -2 -2 -1 1 3 4 5 6 7 8 8 8 8 9 9 9 9 10 11 11 10 11 11 11 11 12 12 13 13 13 13 13 13 14 15 16 17 16 16 17 17 18 18 17 18 18 18 18 17 17 18 17 17 16 16 16 18 19 20 20 20 20 20 20 20 21 20 20 20 20 21 22 23 23 23 23 24 25 25 25 25 25 24 24 23 24 24 23 22 22 22 22 23 23 22 21 21 21 21 20 20 19 18 18 19 20 20 20 19 19 21 22 22 22 21 21 20 19 19 19 18 18 17 19 25 30 31 31 26 20 17 17 17 17 18 19 20 20 20 20 22 25 22 19 18 16 13 12 11 10 9 8 8 8 9 8 7 7 8 8 6 4 3 2 3 2 3 3 4 3 3 5 6 9 11 11 10 9 9 9 10 12 13 13 12 11 12 12 12 0 0 0 0 0 0 0 0 0 0 0 0 0 0 0 0 0 0 0 0 0 0 0 0 0 0 0 0 0 0 0 0 0 0 0 0 0 0 0 0 0 0 0 0 0 0 0 0 0 0 0 0 0 0 0 0 0 0 0 0 0 0 0 0 0 0 0 0 0 0 0 0 0 0 0 0 0 0 0 0 0 0 0 0 0 0 0 0 0 0 0 0 0 0 0 0 0 0 0 0 0 0 0 0 0 0 0 0 0 0 0 0 0 0 0 0 0 0 0 0 0 0 0 0 0 0 0 0 0 0 0 0 0 0 0 0 0 0 0 0 0 0 0 0 0 0 0 0 0 0 0 0 0 0 0 0 0 0 0 0 0 0 0 0 0 0 0
41 46 47 44 42 39 38 37 37 38 43 45 47 48 44 44 44 45 44 40 38 38 40 42 43 45 47 49 53 56 58 59 59 60 59 54 53 54 55 57 57 54 51 52 53 56 58 58 63 66 67 68 68 68 68 69 70 72 72 72 76 78 78 79 79 77 75 73 72 71 68 61 53 51 47 46 46 47 47 46 48 54 58 58 57 57 58 57 53 50 50 49 47 44 42 44 46 46 44 42 41 41 41 41 41 41 41 39 38 36 35 34 33 33 33 33 33 33 34 36 36 37 38 38 38 39 39 40 41 41 41 41 44 48 50 48 47 49 54 55 52 51 51 51 52 53 55 56 57 58 58 59 59 59 58 58 58 57 56 57 58 58 55 50 41 36 36 35 35 34 34 36 37 39 41 43 41 40 40 41 41 40 40 39 38 38 39 41 42 41 41 43 44 46 48 49 49 49 49 48 46 46 46 46 47 48 51 54 61 63 60 54 52 51 49 45 43 42 43 44 45 45 44 45 45 46 46 48 48 43 40 39 34 34 34 34 34 34 34 34 34 34 34 34 34 34 34 34 34 34 34 34 34 34 34 34 34 34 34 34 34 34 34 34 34 34 34 34 34 34 34 34 34 34 34 34 34 34 34 34 34 34 34 34 34 34 34 34 34 34 34 34 34 34 34 34 34 34 34 34 34 34 34 34 34 34 34 34 34 34 34 34 34 34 34 34 34 34 34 34 34 34 34 34 34 34 34 34 34 34 34 34 34 34 34 34 34 34 34 34 34 34 34 34 34 34 34 34 34 34 34 34 34 34 34 34 34 34 34 34 34 34 34 34 34 34 34 34 34 34 34 34 34 34 34 34 34 34 34 34 34 34 34 34 34 34 34 34 34 34 34 34 34 34 34 34 34 34 34 34 34 34 34 34 34 34 34 34 34 34 34 34 34 34 34 34 34 34 34 34 34 34 34 34 34 34 34 34 34 34 34 34 34 34 35 37 40 40 41 42 42 41 41 40 40 39 39 41 42 42 42 41 39 38 39 41 41 40 40 41 41 43 45 48 50 53 56 57 52 47 45 44 44 44 44 44 45 46 50 51 51 52 53 53 54 56 57 57 59 60 61 62 61 61 60 60 60 62 63 63 62 61 59 59 59 57 57 56 54 52 49 48 48 49 50 49 48 48 48 48 48 48 50 52 55 55 57 59 60 60 62 64 65 62 56 53 52 55 60 65 68 68 67 65 63 59 56 54 52 49 50 50 50 49 47 46 45 47 48 47 46 45 45 46 46 47 49 51 53 53 53 53 54 56 56 56 54 53 53 53 52 52 53 54 55 57 59 59 58 58 58 58 57 56 56 56 54 53 53 52 50 48 45 42 40 38 37 37 37 35 34 32 29 26 22 19 17 15 12 11 12 13 14 14 12 10 8 7 4 0 0 2 4 4 4 4 4 6 8 10 11 12 12 13 13 13 12 14 18 18 17 17 17 17 17 17 17 16 16 14 13 12 13 14 14 15 17 17 16 15 15 14 14 14 13 15 16 15 15 15 16 16 17 18 18 18 18 17 15 13 13 14 14 14 15 14 13 10 8 7 5 5 5 6 6 5 4 3 3 2 1 0 0 0 -1 0 0 0 -1 -1 -2 -3 -4 -4 -4 -4 -4 -4 -3 -2 -1 -2 -2 -2 -2 -1 -1 0 0 1 1 -1 -3 -3 -2 -2 -2 -2 -2 -2 0 2 4 5 5 6 7 8 8 8 8 9 9 9 10 11 11 11 12 13 12 13 12 13 14 14 14 15 15 16 17 17 18 20 18 17 17 18 19 20 19 19 19 19 18 18 18 18 17 17 16 16 17 19 20 20 21 20 20 20 20 21 22 21 21 21 21 22 23 23 23 24 24 25 25 26 25 25 25 25 25 26 27 27 25 23 22 23 23 24 24 23 22 22 22 22 21 20 19 18 18 18 19 20 20 20 21 22 23 23 22 22 21 20 20 20 20 19 19 19 19 24 28 29 27 23 19 18 17 17 18 18 18 19 20 20 20 22 25 23 18 17 15 13 12 10 8 6 6 6 7 7 7 7 6 7 5 4 3 2 2 3 3 5 5 6 6 7 8 9 12 14 14 12 11 11 11 12 14 14 13 12 12 13 13 13 0 0 0 0 0 0 0 0 0 0 0 0 0 0 0 0 0 0 0 0 0 0 0 0 0 0 0 0 0 0 0 0 0 0 0 0 0 0 0 0 0 0 0 0 0 0 0 0 0 0 0 0 0 0 0 0 0 0 0 0 0 0 0 0 0 0 0 0 0 0 0 0 0 0 0 0 0 0 0 0 0 0 0 0 0 0 0 0 0 0 0 0 0 0 0 0 0 0 0 0 0 0 0 0 0 0 0 0 0 0 0 0 0 0 0 0 0 0 0 0 0 0 0 0 0 0 0 0 0 0 0 0 0 0 0 0 0 0 0 0 0 0 0 0 0 0 0 0 0 0 0 0 0 0 0 0 0 0 0 0 0 0 0 0 0 0 0
46 50 53 53 49 42 38 38 43 46 53 57 57 54 49 47 45 43 40 37 37 38 40 43 44 43 45 47 51 54 56 57 58 59 57 52 49 49 51 54 56 56 56 57 57 58 60 59 59 62 64 67 69 70 70 70 71 72 72 75 77 74 74 74 75 75 73 71 70 69 63 53 50 50 49 48 48 48 47 47 51 56 57 56 53 53 53 54 53 50 49 48 45 43 43 43 43 43 42 41 42 41 41 41 41 41 38 35 35 34 33 32 33 33 33 33 34 35 36 36 36 37 38 40 41 40 39 39 39 40 39 39 40 45 49 50 51 52 55 56 53 49 49 49 50 51 53 54 54 55 55 55 56 58 58 58 58 58 59 58 58 57 53 48 41 36 36 36 36 36 36 37 37 38 40 40 40 41 41 41 42 42 41 40 40 40 40 41 41 42 42 43 44 47 50 52 52 52 52 51 50 50 48 47 48 49 52 55 63 68 67 58 53 53 52 48 44 44 46 47 45 44 44 45 45 46 49 55 59 56 53 48 45 42 42 44 39 34 34 34 34 34 34 34 34 34 34 34 34 34 34 34 34 34 34 34 34 34 34 34 34 34 34 34 34 34 34 34 34 34 34 34 34 34 34 34 34 34 34 34 34 34 34 34 34 34 34 34 34 34 34 34 34 34 34 34 34 34 34 34 34 34 34 34 34 34 34 34 34 34 34 34 34 34 34 34 34 34 34 34 34 34 34 34 34 34 34 34 34 34 34 34 34 34 34 34 34 34 34 34 34 34 34 34 34 34 34 34 34 34 34 34 34 34 34 34 34 34 34 34 34 34 34 34 34 34 34 34 34 34 34 34 34 34 34 34 34 34 34 34 34 34 34 34 34 34 34 34 34 34 34 34 34 34 34 34 34 34 34 34 34 34 34 34 34 34 34 34 34 34 34 34 34 34 34 34 34 34 34 34 34 34 34 34 34 34 34 34 34 34 34 34 34 34 34 40 41 41 40 40 40 41 38 34 34 34 37 38 40 40 41 40 39 39 39 39 40 41 42 42 42 42 41 41 42 44 46 48 47 46 44 42 42 43 44 45 46 46 48 48 49 50 51 52 54 55 56 56 56 57 59 59 59 59 59 59 60 61 62 63 62 60 59 60 58 56 56 54 53 51 50 49 48 49 49 49 49 47 47 48 48 49 51 52 55 57 59 61 62 62 64 65 66 62 58 56 55 56 58 60 63 63 65 66 67 66 66 65 63 62 59 53 52 51 53 54 53 52 51 50 49 48 47 48 49 51 52 53 55 56 55 54 55 55 56 56 55 54 53 52 51 51 53 55 57 58 58 58 58 58 59 58 58 56 54 52 50 48 48 47 46 44 42 40 39 38 37 37 36 36 34 31 27 23 20 18 17 15 13 13 12 12 12 12 10 9 7 6 3 0 3 9 10 10 9 8 10 11 12 13 15 15 15 14 14 13 12 12 14 14 14 14 15 15 15 15 15 16 16 15 14 13 14 13 14 16 17 16 15 14 13 12 12 12 13 15 15 16 16 16 17 18 19 20 20 20 20 18 16 15 15 15 14 13 12 11 10 8 7 5 5 5 5 6 6 4 3 2 1 1 0 0 0 0 0 0 0 -1 -2 -2 -3 -4 -4 -2 -1 -1 -3 -4 -4 -4 -3 -2 -1 -2 -3 -4 -3 -2 -2 -2 -1 -1 -2 -3 -3 -3 -3 -2 -2 -2 -2 0 1 2 3 4 6 8 8 9 10 10 10 10 10 11 12 12 13 13 13 13 14 15 16 16 17 19 21 22 21 21 22 22 22 21 21 21 21 22 22 21 21 21 21 20 19 19 18 18 17 18 20 21 21 21 21 21 22 22 22 22 23 22 21 22 23 23 23 23 23 23 23 24 25 26 27 27 27 27 26 28 30 29 27 26 26 25 26 26 25 24 24 23 23 23 22 22 21 20 20 19 20 21 22 22 23 24 25 24 23 23 22 21 22 22 21 20 20 18 17 18 20 21 21 21 22 21 19 19 18 18 19 20 19 19 20 19 21 21 16 15 12 9 8 9 9 9 8 9 11 11 11 12 11 10 8 6 6 6 7 10 9 9 9 9 11 14 16 16 17 17 15 14 14 15 19 21 18 15 13 13 14 15 15 15 0 0 0 0 0 0 0 0 0 0 0 0 0 0 0 0 0 0 0 0 0 0 0 0 0 0 0 0 0 0 0 0 0 0 0 0 0 0 0 0 0 0 0 0 0 0 0 0 0 0 0 0 0 0 0 0 0 0 0 0 0 0 0 0 0 0 0 0 0 0 0 0 0 0 0 0 0 0 0 0 0 0 0 0 0 0 0 0 0 0 0 0 0 0 0 0 0 0 0 0 0 0 0 0 0 0 0 0 0 0 0 0 0 0 0 0 0 0 0 0 0 0 0 0 0 0 0 0 0 0 0 0 0 0 0 0 0 0 0 0 0 0 0 0 0 0 0 0 0 0 0 0 0 0 0 0 0 0 0 0 0 0 0 0 0 0 0
50 54 55 55 54 50 45 44 47 49 53 56 57 54 51 49 45 41 38 36 38 40 43 46 47 45 45 46 47 48 52 55 57 56 54 51 49 49 50 52 56 58 59 59 59 57 57 58 58 62 64 68 71 72 71 70 69 67 65 65 65 64 64 64 65 66 66 67 66 64 58 50 49 49 49 48 48 46 45 44 47 49 50 50 49 49 49 49 48 47 47 46 45 44 44 44 43 41 39 38 39 38 38 38 38 38 37 35 35 35 38 44 49 49 47 44 42 39 37 37 37 37 38 38 38 38 37 36 36 37 38 38 37 41 47 51 52 53 53 55 57 55 52 52 51 51 52 51 49 50 54 55 55 55 55 55 57 59 60 60 57 54 49 46 41 37 37 37 36 36 38 39 39 39 40 41 41 41 41 41 41 42 42 41 41 41 42 43 43 44 45 46 46 47 50 52 54 55 55 55 55 55 53 52 51 52 53 54 59 64 63 55 49 49 48 46 44 43 44 45 45 44 44 45 45 48 54 60 62 56 51 47 47 47 46 45 43 39 36 35 35 35 35 35 35 35 37 35 35 35 34 34 34 35 37 36 36 36 34 34 34 36 38 40 42 41 38 36 34 34 33 35 35 34 34 34 34 34 34 34 34 34 34 34 34 34 34 34 34 34 34 34 34 34 34 34 34 34 34 34 34 34 34 34 34 34 34 34 34 34 34 34 34 34 34 34 34 34 34 34 34 34 34 34 34 34 34 34 34 34 34 34 34 34 34 34 34 34 34 34 34 34 34 34 34 34 34 34 34 34 34 34 34 34 34 34 34 34 34 34 34 34 34 34 34 34 34 34 34 34 34 34 34 34 34 34 34 34 34 34 34 34 34 34 34 34 34 34 34 34 34 34 34 34 34 34 34 34 34 34 34 34 34 34 34 34 34 34 34 34 34 34 34 34 34 34 34 34 34 34 34 34 34 34 34 34 34 34 34 34 34 34 34 34 34 34 37 37 38 39 39 36 34 34 34 34 34 35 38 39 41 41 41 39 38 38 38 40 41 42 42 42 41 40 41 44 45 46 45 45 43 43 43 44 45 47 48 49 49 49 49 50 51 51 52 53 54 53 52 52 54 55 56 56 56 56 57 59 60 60 60 60 61 63 62 58 57 54 51 50 50 49 48 48 48 49 50 50 49 48 48 49 50 51 56 60 59 58 60 61 62 64 65 63 60 58 57 56 58 59 61 61 63 66 67 67 66 66 66 64 61 54 53 54 58 61 63 64 63 62 60 56 54 53 54 56 57 58 60 62 61 58 57 57 57 57 57 57 57 54 51 52 53 54 55 55 55 55 55 53 52 53 54 53 52 49 45 44 45 46 44 41 40 40 40 38 37 35 33 30 29 26 23 22 20 17 16 15 14 13 12 11 10 9 7 5 2 1 0 1 7 11 13 13 14 15 16 16 15 14 14 15 15 16 15 13 12 12 13 12 12 12 13 14 14 14 14 13 14 14 13 13 14 14 16 14 14 15 16 15 14 13 14 13 14 15 16 18 20 20 19 19 19 19 19 18 18 16 14 14 14 14 14 13 12 11 11 9 7 5 5 5 5 5 4 2 1 0 0 0 0 0 0 0 -1 -2 -2 -2 -2 -3 -4 -4 -4 -3 -3 -3 -3 -4 -4 -3 -2 -1 -1 -1 -3 -3 -3 -2 -2 -1 -1 -1 0 0 -1 -3 -3 -2 -2 -3 -3 -1 0 2 3 5 6 7 9 9 10 10 11 11 11 12 13 14 15 15 15 15 16 17 18 19 19 20 21 22 23 22 21 21 21 22 23 23 22 23 24 25 24 24 22 20 20 19 18 18 19 20 21 20 20 20 20 21 22 23 23 22 22 22 22 23 24 25 25 26 26 26 26 28 29 29 29 28 27 28 29 31 32 31 29 28 28 28 27 27 26 26 26 29 32 33 34 34 32 29 27 23 22 22 23 25 25 26 26 25 25 24 23 22 22 21 20 20 20 19 18 18 19 20 20 20 19 19 17 17 16 16 17 17 16 16 17 16 15 14 10 9 8 9 11 12 13 14 15 16 18 20 20 21 20 18 15 15 16 17 18 18 17 15 15 16 17 18 19 19 19 17 15 14 17 18 21 22 21 17 15 16 16 16 16 17 0 0 0 0 0 0 0 0 0 0 0 0 0 0 0 0 0 0 0 0 0 0 0 0 0 0 0 0 0 0 0 0 0 0 0 0 0 0 0 0 0 0 0 0 0 0 0 0 0 0 0 0 0 0 0 0 0 0 0 0 0 0 0 0 0 0 0 0 0 0 0 0 0 0 0 0 0 0 0 0 0 0 0 0 0 0 0 0 0 0 0 0 0 0 0 0 0 0 0 0 0 0 0 0 0 0 0 0 0 0 0 0 0 0 0 0 0 0 0 0 0 0 0 0 0 0 0 0 0 0 0 0 0 0 0 0 0 0 0 0 0 0 0 0 0 0 0 0 0 0 0 0 0 0 0 0 0 0 0 0 0 0 0 0 0 0 0
56 57 57 57 56 54 52 51 52 51 51 53 56 57 53 50 44 40 38 37 39 40 44 47 48 48 47 47 46 48 50 52 54 55 53 51 52 55 57 60 62 62 61 61 61 59 58 56 57 60 62 66 68 68 67 64 62 60 58 59 59 58 57 55 54 56 58 60 61 60 52 46 46 46 46 46 44 43 43 43 44 46 49 49 49 50 51 50 48 47 46 46 45 42 42 42 40 39 38 38 39 39 38 38 37 36 38 42 43 47 53 57 58 56 55 51 49 46 44 43 43 43 42 42 43 42 41 39 40 40 41 42 45 46 48 51 53 52 52 52 52 55 58 57 55 53 50 46 44 44 47 50 50 51 54 55 57 58 58 57 56 55 50 45 38 36 36 35 34 36 38 40 41 41 41 40 41 41 41 41 41 42 43 43 43 43 44 44 45 46 46 46 46 47 50 52 54 55 57 57 57 57 55 52 51 51 51 52 53 56 54 52 49 49 49 50 49 48 47 47 48 47 45 45 45 49 56 61 62 59 56 47 44 46 45 46 47 48 46 45 45 44 44 46 47 46 45 42 40 37 35 38 41 43 45 46 46 45 45 44 42 40 39 38 39 38 41 43 43 46 46 42 39 37 36 34 34 34 34 34 34 34 34 34 34 34 34 34 34 34 34 34 34 34 34 34 34 34 34 34 34 34 34 34 34 34 34 34 34 34 34 34 34 34 34 34 34 34 34 34 34 34 34 34 34 34 34 34 34 34 34 34 34 34 34 34 34 34 34 34 34 34 34 34 34 34 34 34 34 34 34 34 34 34 34 34 34 34 34 34 34 34 34 34 34 34 34 34 34 34 34 34 34 34 34 34 34 34 34 34 34 34 34 34 34 34 34 34 34 34 34 34 34 34 34 34 34 34 34 34 34 34 34 34 34 34 34 34 34 34 34 34 34 34 34 34 34 34 34 34 34 34 34 34 34 34 34 34 34 34 34 34 34 34 34 34 34 34 34 34 34 34 34 34 34 34 34 34 37 39 43 45 44 41 40 39 40 41 42 41 41 41 40 40 40 41 42 44 44 43 45 47 47 47 46 46 47 48 49 50 50 51 52 52 51 52 53 54 54 53 52 53 53 52 52 52 52 52 54 57 59 62 65 66 65 62 60 56 53 52 51 50 50 49 48 48 49 50 50 50 49 49 50 51 52 55 56 56 57 57 58 60 62 64 62 60 57 55 55 56 57 58 61 62 63 63 62 62 62 62 59 53 52 53 58 62 65 66 65 65 64 60 58 60 60 60 61 62 63 63 61 58 57 58 58 58 59 60 59 55 52 53 54 54 54 54 54 54 53 52 51 50 49 49 49 48 47 46 46 45 41 38 37 37 37 36 34 31 29 27 26 24 22 20 17 16 15 12 11 11 11 11 9 6 3 2 2 1 -1 2 7 12 14 14 15 15 16 16 17 17 17 17 17 16 16 16 15 15 14 13 12 11 11 12 13 13 13 14 15 15 14 14 15 16 14 13 13 13 14 14 14 14 14 14 15 16 18 20 21 21 21 21 20 19 18 17 16 15 15 14 14 12 11 11 11 12 12 10 8 6 5 5 5 3 2 1 1 0 -1 -1 0 1 -1 -2 -3 -3 -3 -3 -3 -3 -3 -3 -3 -4 -3 -3 -3 -3 -3 -2 -1 -1 1 2 1 0 0 1 0 0 -1 -1 -1 0 -1 -1 -1 -2 -2 -2 -1 0 1 3 4 6 7 7 9 9 11 12 13 13 13 14 14 16 17 17 18 18 18 19 19 19 19 20 20 21 22 22 22 23 23 23 23 23 23 23 24 25 24 23 22 21 21 20 20 20 20 20 21 21 21 20 21 22 23 23 23 23 23 24 25 26 26 26 27 27 28 28 28 29 30 31 31 31 30 30 31 32 32 32 32 31 30 30 30 31 31 31 33 35 37 37 38 38 37 34 32 27 24 24 25 25 25 25 25 25 24 24 24 23 24 23 22 22 22 21 19 18 17 17 16 15 14 14 14 14 14 14 14 14 14 14 14 13 11 11 11 11 12 13 15 18 19 19 20 21 22 24 24 25 24 22 21 21 22 22 22 22 21 21 21 21 20 21 21 21 20 18 16 14 15 17 20 22 22 19 17 17 16 16 16 16 0 0 0 0 0 0 0 0 0 0 0 0 0 0 0 0 0 0 0 0 0 0 0 0 0 0 0 0 0 0 0 0 0 0 0 0 0 0 0 0 0 0 0 0 0 0 0 0 0 0 0 0 0 0 0 0 0 0 0 0 0 0 0 0 0 0 0 0 0 0 0 0 0 0 0 0 0 0 0 0 0 0 0 0 0 0 0 0 0 0 0 0 0 0 0 0 0 0 0 0 0 0 0 0 0 0 0 0 0 0 0 0 0 0 0 0 0 0 0 0 0 0 0 0 0 0 0 0 0 0 0 0 0 0 0 0 0 0 0 0 0 0 0 0 0 0 0 0 0 0 0 0 0 0 0 0 0 0 0 0 0 0 0 0 0 0 0
56 55 54 54 54 53 50 45 42 42 45 48 50 51 50 48 44 41 39 39 41 42 45 47 47 48 48 48 49 51 52 53 52 52 52 52 53 54 56 59 61 62 63 64 64 63 59 56 56 60 62 64 64 62 61 59 57 55 55 56 57 57 57 55 52 50 50 52 53 51 46 44 44 44 45 45 44 44 43 43 44 47 50 51 51 51 51 50 48 46 45 44 42 39 38 40 40 40 39 39 39 39 39 39 38 37 41 45 47 53 57 57 54 52 51 52 52 48 47 47 47 46 45 45 45 46 47 47 48 49 49 49 50 50 49 50 51 51 50 49 51 55 55 56 58 57 54 48 44 43 44 47 49 52 55 56 57 56 55 54 53 52 49 43 37 37 37 37 38 37 38 40 41 42 42 42 41 40 40 40 41 42 44 46 46 46 46 47 47 48 48 47 48 49 50 51 53 55 57 56 56 56 55 52 51 51 50 50 49 50 50 50 50 51 53 54 54 52 49 48 47 47 47 46 46 49 52 54 54 54 53 49 46 46 44 43 43 43 44 45 47 48 47 47 46 46 47 47 47 45 44 42 41 42 42 40 37 38 38 38 37 36 35 36 36 36 38 41 43 43 43 44 45 44 42 39 38 36 35 34 34 34 34 34 34 34 34 34 34 34 34 34 34 34 34 34 34 34 34 34 34 34 34 34 34 34 34 34 34 34 34 34 34 34 34 34 34 34 34 34 34 34 34 34 34 34 34 34 34 34 34 34 34 34 34 34 34 34 34 34 34 34 34 34 34 34 34 34 34 34 34 34 34 34 34 34 34 34 34 34 34 34 34 34 34 34 34 34 34 34 34 34 34 34 34 34 34 34 34 34 34 34 34 34 34 34 34 34 34 34 34 34 34 34 34 34 34 34 34 34 34 34 34 34 34 34 34 34 34 34 34 34 34 34 34 34 34 34 34 34 34 34 34 34 34 34 34 34 34 34 34 34 34 34 34 34 34 34 34 34 34 34 34 34 34 34 34 37 40 41 45 47 45 42 41 41 42 41 40 39 39 38 38 38 38 40 41 43 42 44 46 47 47 47 47 47 48 49 50 50 49 48 49 49 50 51 51 52 53 54 52 51 52 55 57 57 56 54 53 55 56 60 65 68 67 64 62 59 57 56 55 55 56 57 56 52 51 51 51 51 51 51 51 51 52 54 54 54 55 55 54 55 57 59 60 59 57 55 55 55 55 56 57 58 58 58 57 58 58 58 56 52 51 50 54 58 61 63 63 61 62 62 63 65 65 66 67 66 63 61 57 57 57 59 59 59 58 58 56 53 51 51 53 53 54 53 52 52 53 53 52 52 51 50 49 49 47 45 44 41 38 37 37 36 36 35 33 33 32 30 29 26 23 20 17 16 15 14 13 13 11 10 7 5 4 4 4 3 3 7 12 15 15 15 15 15 15 17 18 19 19 18 17 17 17 17 18 16 15 14 13 12 13 14 14 13 13 14 15 15 14 15 15 15 14 15 15 15 15 16 16 16 15 14 15 16 18 21 22 22 22 23 22 19 17 16 15 14 14 13 13 11 10 10 11 11 10 9 7 5 4 3 2 1 0 0 1 0 -1 -1 0 1 -2 -2 -3 -3 -3 -3 -4 -4 -5 -4 -4 -3 -2 -2 -3 -3 -1 0 1 2 3 4 5 5 5 4 2 0 -1 -2 -2 -2 -2 -3 -3 -2 -2 -1 0 0 1 3 4 6 8 9 10 10 11 12 13 15 16 17 18 19 19 19 19 19 20 20 20 20 20 21 21 22 23 23 23 24 24 24 25 25 26 25 24 24 23 23 23 24 24 22 21 21 20 20 20 21 21 22 23 24 24 23 23 24 25 25 25 25 26 27 28 29 30 30 30 30 32 33 34 34 34 34 33 33 33 33 34 34 34 34 35 35 34 33 32 33 35 36 38 38 35 31 29 27 25 25 25 26 26 26 25 25 26 27 27 26 25 24 23 23 23 21 19 16 15 14 13 13 13 13 15 15 16 17 19 19 17 15 14 14 13 14 17 18 19 20 22 23 24 23 23 24 25 26 26 26 25 24 23 24 24 24 25 25 24 24 24 24 23 22 23 22 21 20 18 14 13 15 20 23 24 22 19 18 16 15 16 16 0 0 0 0 0 0 0 0 0 0 0 0 0 0 0 0 0 0 0 0 0 0 0 0 0 0 0 0 0 0 0 0 0 0 0 0 0 0 0 0 0 0 0 0 0 0 0 0 0 0 0 0 0 0 0 0 0 0 0 0 0 0 0 0 0 0 0 0 0 0 0 0 0 0 0 0 0 0 0 0 0 0 0 0 0 0 0 0 0 0 0 0 0 0 0 0 0 0 0 0 0 0 0 0 0 0 0 0 0 0 0 0 0 0 0 0 0 0 0 0 0 0 0 0 0 0 0 0 0 0 0 0 0 0 0 0 0 0 0 0 0 0 0 0 0 0 0 0 0 0 0 0 0 0 0 0 0 0 0 0 0 0 0 0 0 0 0
51 49 48 44 42 39 37 35 34 34 36 38 38 40 43 46 50 51 46 42 43 45 49 51 52 51 48 48 48 50 52 52 50 49 48 48 49 47 47 49 50 51 52 55 57 58 58 57 55 58 59 60 61 62 63 64 62 57 56 56 56 55 55 54 52 49 47 48 49 48 44 44 44 44 44 44 44 45 46 46 46 48 48 49 51 51 51 50 48 46 44 42 39 38 37 38 39 39 38 38 38 39 39 39 38 38 43 47 47 49 50 49 49 48 48 50 50 49 49 47 46 45 44 44 45 46 46 46 48 49 49 49 49 47 46 46 47 48 49 48 52 54 54 54 55 55 54 51 48 46 48 49 51 52 55 56 56 55 54 53 52 50 45 37 35 37 37 38 39 40 41 41 41 42 41 41 42 42 42 43 43 43 43 44 45 45 46 47 47 47 47 47 47 48 49 50 52 53 54 55 55 55 54 53 52 53 53 52 50 50 51 52 52 52 52 53 52 51 49 48 48 48 47 46 47 51 54 52 48 46 47 47 46 45 44 44 44 44 44 43 44 44 44 44 44 43 43 43 43 44 44 42 40 37 36 34 35 37 37 37 36 36 37 38 39 40 41 43 44 45 43 42 42 42 43 42 41 38 36 35 34 34 34 34 34 34 34 34 34 34 34 34 34 34 34 34 34 34 34 34 34 34 34 34 34 34 34 34 34 34 34 34 34 34 34 34 34 34 34 34 34 34 34 34 34 34 34 34 34 34 34 34 34 34 34 34 34 34 34 34 34 34 34 34 34 34 34 34 34 34 34 34 34 34 34 34 34 34 34 34 34 34 34 34 34 34 34 34 34 34 34 34 34 34 34 34 34 34 34 34 34 34 34 34 34 34 34 34 34 34 34 34 34 34 34 34 34 34 34 34 34 34 34 34 34 34 34 34 34 34 34 34 34 34 34 34 34 34 34 34 34 34 34 34 34 34 34 34 34 34 34 34 34 34 34 34 34 34 34 34 34 34 34 34 34 34 34 37 39 40 44 46 45 43 42 41 41 41 39 38 38 37 36 37 38 40 41 43 43 45 47 47 47 48 49 48 49 50 49 48 47 47 48 48 48 48 49 50 51 52 53 53 56 60 59 59 58 55 53 54 56 60 62 64 64 61 60 58 56 55 55 57 58 61 60 56 55 54 53 52 51 51 50 51 51 51 52 51 50 50 51 51 52 53 54 55 56 57 60 60 59 59 60 60 59 59 59 59 57 55 53 50 49 48 49 51 52 53 53 55 57 60 63 64 64 65 66 65 64 63 59 57 57 57 57 57 57 57 55 52 50 50 50 51 52 52 52 53 54 55 55 55 54 52 51 51 49 46 44 41 41 41 39 36 34 33 31 29 30 28 27 26 22 18 17 16 15 14 12 10 8 7 6 4 3 6 12 15 18 17 16 15 15 15 14 14 15 15 16 17 17 17 17 18 18 18 18 17 17 16 15 15 16 16 15 14 14 14 15 16 16 17 18 18 18 17 16 17 18 18 18 19 19 20 19 18 18 19 21 23 25 25 22 19 16 15 13 12 12 13 13 13 12 11 10 9 8 7 6 5 3 2 2 1 1 0 1 1 0 0 1 0 -2 -2 -3 -2 -1 -2 -3 -3 -3 -4 -4 -4 -3 -3 -3 -3 -2 0 1 2 3 3 5 6 6 6 4 1 -1 -2 -2 -3 -3 -3 -3 -2 -2 -2 0 1 3 4 5 7 10 12 13 14 15 16 16 16 17 17 19 20 21 21 21 21 21 22 22 21 21 22 23 23 23 24 24 25 25 25 26 26 26 27 26 27 27 27 26 25 24 23 22 22 21 21 22 24 25 25 26 27 27 26 26 27 26 25 25 26 27 29 30 30 31 32 32 33 33 34 35 35 37 37 37 37 35 35 34 35 34 35 36 37 37 34 33 33 35 36 38 38 35 31 29 28 28 28 27 27 27 27 27 28 27 28 28 27 26 25 24 22 21 19 17 15 14 14 15 15 18 19 19 19 20 22 24 26 27 26 25 28 28 25 24 24 25 26 27 26 26 25 26 27 27 27 27 27 26 26 25 25 25 25 26 25 25 26 26 26 25 25 24 23 23 22 20 17 15 16 18 21 23 21 19 18 16 16 17 17 0 0 0 0 0 0 0 0 0 0 0 0 0 0 0 0 0 0 0 0 0 0 0 0 0 0 0 0 0 0 0 0 0 0 0 0 0 0 0 0 0 0 0 0 0 0 0 0 0 0 0 0 0 0 0 0 0 0 0 0 0 0 0 0 0 0 0 0 0 0 0 0 0 0 0 0 0 0 0 0 0 0 0 0 0 0 0 0 0 0 0 0 0 0 0 0 0 0 0 0 0 0 0 0 0 0 0 0 0 0 0 0 0 0 0 0 0 0 0 0 0 0 0 0 0 0 0 0 0 0 0 0 0 0 0 0 0 0 0 0 0 0 0 0 0 0 0 0 0 0 0 0 0 0 0 0 0 0 0 0 0 0 0 0 0 0 0
52 51 48 39 37 33 32 31 32 33 35 36 36 36 42 44 47 49 46 42 42 44 49 51 53 53 50 49 48 50 51 51 50 49 47 47 49 47 47 47 48 49 49 51 53 55 57 57 56 58 58 59 61 63 65 67 66 60 58 58 57 55 55 54 52 49 48 48 49 49 43 43 45 45 44 44 45 46 47 47 47 47 47 48 50 50 50 49 49 47 43 41 39 38 37 38 39 39 39 38 38 39 39 37 36 40 45 49 49 48 48 46 45 46 46 48 48 48 48 47 47 47 46 46 45 44 43 44 46 48 48 48 48 47 46 47 49 50 52 50 53 56 55 55 54 53 52 52 51 50 52 52 51 51 54 55 56 54 51 50 47 45 40 36 35 37 37 38 39 41 42 43 42 41 41 41 43 43 43 43 44 43 43 44 45 45 46 48 48 47 47 48 48 48 48 49 51 52 52 52 54 54 54 54 54 54 53 52 51 51 53 54 54 54 53 53 52 51 49 48 47 48 47 47 49 54 57 55 49 47 47 47 46 45 44 44 44 45 44 44 44 44 44 44 44 44 43 43 43 43 43 43 42 39 37 36 37 38 39 39 39 39 39 39 41 42 42 43 44 44 42 42 42 42 42 42 42 41 38 36 35 34 34 34 34 34 34 34 34 34 34 34 34 34 34 34 34 34 34 34 34 34 34 34 34 34 34 34 34 34 34 34 34 34 34 34 34 34 34 34 34 34 34 34 34 34 34 34 34 34 34 34 34 34 34 34 34 34 34 34 34 34 34 34 34 34 34 34 34 34 34 34 34 34 34 34 34 34 34 34 34 34 34 34 34 34 34 34 34 34 34 34 34 34 34 34 34 34 34 34 34 34 34 34 34 34 34 34 34 34 34 34 34 34 34 34 34 34 34 34 34 34 34 34 34 34 34 34 34 34 34 34 34 34 34 34 34 34 34 34 34 34 34 34 34 34 34 34 34 34 34 34 34 34 34 34 34 34 34 34 34 34 34 34 34 34 34 36 38 39 42 44 44 41 40 41 41 41 40 38 38 38 37 37 39 41 42 42 43 45 48 49 49 48 49 49 48 49 48 47 47 47 48 48 48 48 48 49 51 52 53 54 58 61 59 59 57 54 52 54 56 58 60 61 60 58 58 57 55 54 54 57 59 61 60 56 55 54 53 50 49 49 50 51 51 50 50 49 48 48 48 49 51 52 53 54 54 57 60 61 60 60 60 60 60 60 60 60 58 55 52 49 48 47 47 48 50 51 51 52 55 58 61 62 62 61 62 62 62 62 59 57 56 56 55 55 55 56 55 52 49 48 49 50 52 53 54 54 55 56 56 55 54 52 49 48 48 45 44 44 46 46 43 38 35 31 29 28 28 27 27 25 22 18 17 16 16 14 12 10 8 7 6 5 4 9 16 20 22 19 16 15 15 15 15 15 15 15 15 16 17 17 17 18 18 19 18 17 17 17 16 16 17 17 15 15 15 15 15 16 16 16 17 18 18 18 17 17 18 19 19 20 21 22 21 20 19 20 22 23 24 22 19 17 15 13 12 11 12 12 12 13 11 10 10 8 7 6 5 4 3 1 1 1 1 1 1 1 1 1 1 -1 -3 -3 -2 0 1 -1 -2 -3 -3 -3 -3 -3 -3 -3 -4 -4 -3 -1 2 3 4 3 4 5 5 5 3 1 -1 -2 -2 -3 -3 -3 -3 -2 -2 -1 0 2 3 5 6 9 11 13 15 15 16 16 15 16 16 17 18 20 21 21 21 22 23 23 23 23 23 23 23 24 25 26 25 25 26 26 27 27 27 27 27 28 28 28 27 26 25 23 22 22 22 22 22 24 25 27 28 29 29 28 28 27 27 26 26 27 28 29 30 31 32 34 34 34 34 34 35 36 37 37 38 38 36 36 36 36 35 34 35 36 37 35 34 34 36 37 39 39 37 33 31 30 30 28 28 28 28 28 29 29 28 28 28 27 26 25 22 20 20 18 17 17 18 19 18 20 23 24 23 22 21 23 26 28 29 29 28 31 32 28 26 26 27 27 27 27 27 26 27 28 28 28 28 27 27 26 25 25 25 25 26 26 26 27 27 26 26 25 25 24 24 23 22 18 15 15 18 22 24 22 19 18 16 17 18 18 0 0 0 0 0 0 0 0 0 0 0 0 0 0 0 0 0 0 0 0 0 0 0 0 0 0 0 0 0 0 0 0 0 0 0 0 0 0 0 0 0 0 0 0 0 0 0 0 0 0 0 0 0 0 0 0 0 0 0 0 0 0 0 0 0 0 0 0 0 0 0 0 0 0 0 0 0 0 0 0 0 0 0 0 0 0 0 0 0 0 0 0 0 0 0 0 0 0 0 0 0 0 0 0 0 0 0 0 0 0 0 0 0 0 0 0 0 0 0 0 0 0 0 0 0 0 0 0 0 0 0 0 0 0 0 0 0 0 0 0 0 0 0 0 0 0 0 0 0 0 0 0 0 0 0 0 0 0 0 0 0 0 0 0 0 0 0
53 50 45 36 33 30 30 31 32 33 34 37 37 36 35 36 38 40 42 41 41 43 46 48 51 53 53 52 50 48 47 48 49 49 48 47 48 47 47 46 45 46 46 48 49 53 54 56 57 60 61 62 64 65 66 67 66 60 56 57 56 55 55 54 52 51 50 50 49 47 45 44 44 44 45 45 45 46 46 47 47 48 49 50 49 49 48 47 47 47 45 44 41 38 38 40 40 40 40 39 38 38 38 38 38 42 45 44 43 41 39 39 41 44 45 48 48 48 48 49 49 49 48 45 42 41 40 40 41 43 44 44 45 46 46 47 48 48 47 47 49 49 47 47 46 45 44 46 47 46 47 47 46 45 46 46 45 45 45 42 38 37 36 37 36 36 37 39 41 42 42 43 43 43 43 43 44 45 45 45 46 46 46 47 47 46 47 48 48 49 49 49 49 48 50 51 52 52 52 52 54 55 56 56 54 53 52 52 52 53 55 57 58 58 58 57 54 53 52 51 51 50 50 52 54 57 57 54 50 48 47 48 48 46 45 46 46 46 45 46 47 47 46 45 43 43 43 42 42 43 43 42 42 42 42 42 42 42 42 42 43 43 43 44 44 44 43 42 43 45 44 44 44 43 43 42 42 42 42 40 38 36 35 35 35 34 34 34 34 34 34 34 34 34 34 34 34 34 34 34 34 34 34 34 34 34 34 34 34 34 34 34 34 34 34 34 34 34 34 34 34 34 34 34 34 34 34 34 34 34 34 34 34 34 34 34 34 34 34 34 34 34 34 34 34 34 34 34 34 34 34 34 34 34 34 34 34 34 34 34 34 34 34 34 34 34 34 34 34 34 34 34 34 34 34 34 34 34 34 34 34 34 34 34 34 34 34 34 34 34 34 34 34 34 34 34 34 34 34 34 34 34 34 34 34 34 34 34 34 34 34 34 34 34 34 34 34 34 34 34 34 34 34 34 34 34 34 34 34 34 34 34 34 34 34 34 34 34 34 34 34 34 34 34 34 34 34 36 38 38 40 41 42 40 39 39 40 40 39 39 39 38 38 39 39 41 42 42 44 48 51 52 52 52 52 49 47 47 46 46 46 47 47 47 47 49 50 51 51 52 54 56 57 57 58 58 55 53 52 53 54 55 56 55 55 56 56 55 55 56 59 60 61 61 58 55 53 51 51 50 50 51 53 55 56 54 51 49 49 49 48 48 50 52 52 51 49 51 55 57 57 56 56 57 57 57 58 57 55 51 47 46 46 45 46 47 48 49 50 51 53 55 57 56 56 56 55 56 57 57 55 55 53 52 53 53 53 54 53 51 49 48 49 50 52 54 54 53 52 53 52 51 50 48 46 46 47 50 50 51 52 52 48 43 40 33 29 28 27 26 25 23 20 18 18 17 17 15 13 12 11 10 7 6 5 6 12 16 19 18 16 15 15 15 15 14 14 14 14 15 16 17 19 20 20 20 19 18 17 18 17 15 15 16 15 15 15 15 16 17 17 17 17 19 21 21 20 20 19 20 21 22 23 24 23 22 22 22 21 21 20 18 16 13 12 11 10 11 10 9 9 10 10 9 8 7 6 4 3 2 2 1 1 1 1 1 1 1 0 1 0 -2 -3 -3 -1 0 1 -1 -2 -3 -4 -5 -4 -3 -3 -3 -3 -3 -1 1 3 4 6 6 6 5 4 2 1 1 1 -1 -2 -3 -3 -3 -3 0 1 3 4 4 6 8 10 12 14 15 16 16 17 16 15 15 16 17 18 20 22 21 23 25 26 27 26 25 25 26 26 26 27 28 28 28 29 29 29 29 29 30 30 29 29 28 28 27 26 25 23 23 23 24 24 25 26 28 29 31 31 31 31 30 30 29 29 29 30 30 31 31 31 32 32 33 33 33 35 36 37 38 38 37 37 37 36 36 35 35 35 35 35 35 35 35 37 38 40 41 39 35 32 31 31 32 32 32 32 31 32 31 30 29 28 26 25 23 21 21 21 20 21 23 26 27 27 27 28 27 26 25 24 24 25 26 28 29 30 34 35 33 31 31 29 28 28 28 28 27 27 28 29 30 30 29 28 28 26 25 25 25 25 27 27 26 26 26 26 26 26 25 24 22 21 19 16 15 17 25 29 28 24 23 21 20 20 21 0 0 0 0 0 0 0 0 0 0 0 0 0 0 0 0 0 0 0 0 0 0 0 0 0 0 0 0 0 0 0 0 0 0 0 0 0 0 0 0 0 0 0 0 0 0 0 0 0 0 0 0 0 0 0 0 0 0 0 0 0 0 0 0 0 0 0 0 0 0 0 0 0 0 0 0 0 0 0 0 0 0 0 0 0 0 0 0 0 0 0 0 0 0 0 0 0 0 0 0 0 0 0 0 0 0 0 0 0 0 0 0 0 0 0 0 0 0 0 0 0 0 0 0 0 0 0 0 0 0 0 0 0 0 0 0 0 0 0 0 0 0 0 0 0 0 0 0 0 0 0 0 0 0 0 0 0 0 0 0 0 0 0 0 0 0 0
51 48 43 37 35 33 33 33 34 35 36 36 36 35 34 34 35 35 35 37 39 41 45 48 51 53 52 52 50 47 46 46 47 48 48 47 47 46 46 46 47 48 49 49 49 52 54 54 54 59 61 64 65 66 65 64 64 60 55 54 53 52 52 53 52 51 51 52 52 51 48 46 46 46 47 47 46 45 46 47 47 48 48 48 47 46 45 46 46 48 51 52 51 46 42 42 43 43 43 42 42 41 40 40 40 42 44 43 42 41 40 39 42 45 46 47 48 46 45 46 46 46 46 44 40 38 37 37 38 38 38 38 38 39 38 38 39 39 39 40 41 40 39 39 38 38 39 39 39 39 40 41 42 41 39 38 37 36 36 35 34 35 38 40 40 40 40 40 41 42 43 43 44 44 44 45 45 45 45 46 46 46 47 48 48 48 48 50 50 50 50 50 51 51 52 53 54 53 54 54 56 57 59 59 57 55 54 53 54 55 55 58 61 62 63 60 57 55 54 53 51 51 51 53 54 57 58 55 51 49 48 47 47 46 46 47 47 46 45 45 45 45 45 44 44 43 43 43 43 42 42 43 42 42 42 42 42 42 42 42 43 43 43 44 42 41 41 42 44 44 44 45 45 44 44 43 43 43 43 44 45 44 42 39 36 34 35 35 35 35 34 34 34 34 34 34 34 34 34 34 34 34 34 34 34 34 34 34 34 34 34 34 34 34 34 34 34 34 34 34 34 34 34 34 34 34 34 34 34 34 34 34 34 34 34 34 34 34 34 34 34 34 34 34 34 34 34 34 34 34 34 34 34 34 34 34 34 34 34 34 34 34 34 34 34 34 34 34 34 34 34 34 34 34 34 34 34 34 34 34 34 34 34 34 34 34 34 34 34 34 34 34 34 34 34 34 34 34 34 34 34 34 34 34 34 34 34 34 34 34 34 34 34 34 34 34 34 34 34 34 34 34 34 34 34 34 34 34 34 34 34 34 34 34 34 34 34 34 34 34 34 34 34 34 34 34 34 34 38 38 39 40 42 42 41 41 41 41 40 39 39 38 37 38 37 39 41 46 50 51 51 51 52 53 52 50 49 48 47 47 48 48 50 50 51 52 53 53 52 53 55 56 55 55 55 54 53 52 52 51 51 51 53 56 64 70 70 71 70 69 69 69 70 66 63 62 62 63 62 60 59 57 56 56 54 53 54 54 52 51 50 49 50 50 51 51 50 48 47 47 49 49 50 51 52 50 49 48 46 45 44 43 43 42 41 42 42 43 44 46 48 51 52 52 52 52 52 52 53 53 51 51 51 51 51 51 50 49 49 49 50 50 50 50 50 51 50 49 47 45 45 46 45 44 44 45 48 53 54 56 56 52 47 43 41 36 33 30 27 25 24 22 20 18 18 18 18 18 16 14 11 9 6 5 5 4 6 9 14 17 16 14 14 14 15 15 15 15 15 14 16 18 20 22 22 22 21 20 19 18 17 16 16 17 18 17 17 17 18 20 22 21 21 21 22 22 21 21 22 23 23 22 22 22 22 21 21 21 20 20 18 16 14 13 12 12 10 10 10 10 10 9 8 7 7 7 6 4 2 1 1 1 1 1 1 0 -1 0 1 1 -1 -3 -4 -3 -2 -2 -3 -3 -2 -2 -3 -4 -4 -4 -3 -3 -2 -1 0 1 3 4 5 6 6 4 3 2 1 1 2 2 2 1 0 0 0 1 3 6 7 7 8 10 11 13 15 18 19 18 17 16 15 15 17 18 19 21 22 24 24 26 26 26 27 27 27 28 28 27 27 28 28 29 30 30 30 30 30 30 29 28 27 27 28 27 26 26 26 26 26 26 25 26 27 27 29 31 31 32 32 31 31 31 31 32 33 32 32 31 31 32 32 33 33 34 35 36 36 37 37 36 35 35 35 36 36 36 36 35 35 35 34 35 37 39 42 43 41 38 36 35 34 33 33 33 33 33 33 31 29 27 26 25 25 24 24 24 24 27 30 31 30 31 32 31 30 29 28 28 27 26 27 28 30 31 32 34 34 34 34 34 33 31 30 29 29 29 28 28 28 30 30 30 29 29 28 28 27 27 26 27 28 27 27 27 27 27 26 25 24 22 21 19 16 16 20 27 30 28 26 25 24 24 24 25 0 0 0 0 0 0 0 0 0 0 0 0 0 0 0 0 0 0 0 0 0 0 0 0 0 0 0 0 0 0 0 0 0 0 0 0 0 0 0 0 0 0 0 0 0 0 0 0 0 0 0 0 0 0 0 0 0 0 0 0 0 0 0 0 0 0 0 0 0 0 0 0 0 0 0 0 0 0 0 0 0 0 0 0 0 0 0 0 0 0 0 0 0 0 0 0 0 0 0 0 0 0 0 0 0 0 0 0 0 0 0 0 0 0 0 0 0 0 0 0 0 0 0 0 0 0 0 0 0 0 0 0 0 0 0 0 0 0 0 0 0 0 0 0 0 0 0 0 0 0 0 0 0 0 0 0 0 0 0 0 0 0 0 0 0 0 0
43 40 37 34 33 32 33 33 33 34 35 35 34 34 35 35 35 36 37 38 40 41 44 47 49 50 51 51 52 52 50 49 48 49 48 47 46 46 46 46 48 50 52 53 53 54 55 54 57 62 64 67 68 68 67 66 67 63 54 51 51 50 50 50 48 47 48 50 51 52 51 49 47 47 48 48 47 47 47 46 45 44 45 46 45 45 47 49 51 53 54 55 56 53 48 44 46 46 45 44 44 44 44 43 41 41 43 44 44 45 46 46 45 46 47 47 46 44 44 43 43 43 44 42 41 40 39 37 36 35 35 35 35 35 35 36 35 35 37 38 39 40 38 38 37 37 37 38 38 38 39 39 39 39 38 38 37 36 36 36 37 37 39 40 40 40 40 41 41 42 42 42 42 44 44 43 44 45 46 47 47 47 47 48 48 48 49 51 51 51 51 51 52 53 54 54 57 59 59 58 59 59 60 60 58 56 55 56 57 56 56 56 59 60 61 59 56 54 54 54 52 51 51 51 51 53 54 55 54 52 50 48 47 46 47 48 48 48 47 46 46 45 44 44 43 42 42 41 41 40 39 40 41 42 42 41 42 41 41 41 42 41 42 41 41 42 43 43 44 44 45 46 46 46 46 45 45 44 43 45 47 48 48 46 42 40 39 38 37 36 35 35 35 34 34 34 34 34 34 34 34 34 34 34 34 34 34 34 34 34 34 34 34 34 34 34 34 34 34 34 34 34 34 34 34 34 34 34 34 34 34 34 34 34 34 34 34 34 34 34 34 34 34 34 34 34 34 34 34 34 34 34 34 34 34 34 34 34 34 34 34 34 34 34 34 34 34 34 34 34 34 34 34 34 34 34 34 34 34 34 34 34 34 34 34 34 34 34 34 34 34 34 34 34 34 34 34 34 34 34 34 34 34 34 34 34 34 34 34 34 34 34 34 34 34 34 34 34 34 34 34 34 34 34 34 34 34 34 34 34 34 34 34 34 34 34 34 34 34 34 34 34 34 34 34 34 34 34 34 37 39 38 39 39 38 39 41 42 42 41 41 40 39 38 39 43 45 48 51 53 53 52 52 52 53 53 53 52 52 52 52 53 56 56 57 57 56 54 53 52 54 54 55 55 53 53 52 53 52 52 53 53 53 59 70 75 76 78 80 81 79 75 73 71 72 72 74 75 75 72 69 67 67 67 66 61 54 53 54 54 54 53 53 51 50 49 49 47 45 44 45 45 46 47 48 47 46 45 43 42 43 44 44 43 44 44 43 42 42 43 45 46 48 50 50 52 53 52 51 50 50 50 49 49 49 49 49 49 49 49 49 49 50 50 48 46 45 45 46 45 45 45 44 42 42 41 41 42 43 45 44 43 41 39 37 33 29 27 25 24 24 23 21 18 17 17 16 16 15 14 12 11 9 6 4 3 2 2 7 14 17 14 13 13 14 14 14 15 15 15 16 17 19 19 19 18 19 20 20 21 21 21 21 21 21 20 20 19 21 25 29 29 26 22 22 22 23 23 24 22 21 20 20 21 21 21 19 17 17 17 16 15 14 13 12 11 10 10 11 11 11 10 11 9 6 5 4 4 3 1 1 1 1 0 0 0 0 1 0 0 -2 -3 -4 -4 -3 -3 -3 -4 -4 -5 -4 -3 -3 -3 -2 -2 -1 0 0 1 2 2 2 2 3 2 2 2 2 2 3 3 3 3 3 2 2 4 6 9 10 11 12 12 12 13 15 18 19 19 18 17 18 18 18 19 21 23 25 26 27 27 26 27 28 29 29 29 28 28 29 29 28 28 29 30 30 30 29 29 29 29 28 28 29 29 28 28 28 28 27 26 26 26 27 28 29 30 31 30 30 30 31 33 35 38 39 36 34 33 33 33 33 34 34 34 34 35 36 37 37 37 36 36 36 37 37 37 37 37 36 35 35 35 36 37 40 43 43 40 38 36 35 35 35 34 34 34 33 31 29 26 25 25 26 26 28 30 30 32 35 35 34 35 36 35 33 32 31 30 29 29 28 30 32 33 34 34 33 33 33 33 34 33 33 32 33 32 30 30 30 30 30 30 31 31 31 30 29 28 28 28 29 29 29 29 28 26 25 24 23 22 21 18 16 16 19 25 29 27 26 26 26 25 26 27 0 0 0 0 0 0 0 0 0 0 0 0 0 0 0 0 0 0 0 0 0 0 0 0 0 0 0 0 0 0 0 0 0 0 0 0 0 0 0 0 0 0 0 0 0 0 0 0 0 0 0 0 0 0 0 0 0 0 0 0 0 0 0 0 0 0 0 0 0 0 0 0 0 0 0 0 0 0 0 0 0 0 0 0 0 0 0 0 0 0 0 0 0 0 0 0 0 0 0 0 0 0 0 0 0 0 0 0 0 0 0 0 0 0 0 0 0 0 0 0 0 0 0 0 0 0 0 0 0 0 0 0 0 0 0 0 0 0 0 0 0 0 0 0 0 0 0 0 0 0 0 0 0 0 0 0 0 0 0 0 0 0 0 0 0 0 0
35 33 32 33 33 33 33 32 32 32 32 31 33 33 33 33 34 36 38 39 41 43 45 48 49 49 51 52 53 54 53 52 52 51 50 49 47 45 45 45 48 51 55 56 57 58 59 60 63 65 66 67 67 65 64 64 64 63 58 51 49 49 49 49 48 48 48 48 49 51 51 49 47 47 47 47 46 46 45 44 43 41 42 45 48 48 49 50 50 52 53 54 55 57 59 56 53 52 48 45 45 45 44 43 42 41 41 40 40 41 41 40 41 43 45 48 49 47 44 40 40 39 38 39 39 38 38 38 38 36 33 33 32 32 32 31 32 33 34 33 34 35 35 35 35 35 36 37 37 37 37 37 37 38 38 38 38 37 37 36 37 38 39 38 38 39 40 41 42 42 43 43 43 44 45 44 44 45 45 46 47 48 48 48 49 49 50 51 51 52 52 53 54 55 56 56 58 60 60 60 60 60 61 61 60 58 57 58 59 59 58 59 59 59 60 58 57 55 53 52 51 51 51 50 50 51 53 55 56 55 53 51 48 47 48 49 49 49 48 47 47 46 45 44 43 43 43 42 42 42 42 42 43 43 43 42 43 42 42 42 42 42 42 42 44 45 46 45 45 45 45 45 45 46 46 46 46 45 44 43 43 45 46 47 48 49 48 47 43 40 38 37 36 35 35 35 35 34 34 34 34 34 34 34 34 34 34 34 34 34 34 34 34 34 34 34 34 34 34 34 34 34 34 34 34 34 34 34 34 34 34 34 34 34 34 34 34 34 34 34 34 34 34 34 34 34 34 34 34 34 34 34 34 34 34 34 34 34 34 34 34 34 34 34 34 34 34 34 34 34 34 34 34 34 34 34 34 34 34 34 34 34 34 34 34 34 34 34 34 34 34 34 34 34 34 34 34 34 34 34 34 34 34 34 35 35 34 34 34 34 34 34 34 34 34 34 34 34 34 34 34 34 34 34 34 35 36 36 36 37 37 37 36 35 35 35 35 35 35 34 34 34 34 34 34 34 34 34 34 34 35 37 38 38 37 37 38 39 39 38 38 39 40 41 41 43 44 47 52 54 55 55 55 56 56 57 57 57 57 57 58 58 59 59 58 58 58 58 56 55 54 56 58 58 57 56 54 54 55 55 55 55 54 59 67 71 72 75 77 78 78 74 72 71 72 74 77 79 78 75 72 70 71 71 72 67 59 57 59 59 57 56 55 54 53 52 51 50 49 49 48 48 47 46 45 44 43 43 43 45 46 45 45 45 45 45 44 45 45 43 43 44 45 46 46 47 48 50 51 51 51 50 51 50 50 50 49 49 48 49 49 50 50 49 48 47 47 47 47 47 46 46 46 46 44 41 40 37 38 39 38 37 35 32 31 29 27 26 25 23 23 22 20 18 17 17 17 16 16 15 15 14 9 5 4 3 3 2 2 6 12 13 12 12 12 13 14 14 13 13 14 16 16 16 16 16 17 19 20 22 23 23 22 21 21 19 19 19 21 25 29 30 29 27 25 23 22 22 22 21 20 19 19 18 20 20 18 16 15 15 14 13 13 13 14 13 11 10 11 12 12 11 11 9 6 5 4 3 1 1 0 0 0 0 1 1 -1 -2 -2 -1 -2 -3 -2 -2 -2 -2 -2 -3 -4 -5 -4 -3 -3 -3 -3 -3 -2 -1 0 1 0 0 0 0 1 1 1 2 3 3 3 3 4 5 4 3 4 6 8 11 12 13 13 14 15 16 16 17 19 19 19 19 20 21 21 22 24 25 26 27 28 29 28 28 27 28 28 28 28 28 29 29 29 30 30 29 29 29 29 29 30 29 29 29 30 29 29 29 29 29 29 29 29 28 28 29 29 30 30 31 31 31 32 34 36 38 37 36 35 34 34 34 34 34 34 33 33 34 35 37 38 39 39 39 40 40 40 40 40 40 40 39 38 38 38 38 40 42 41 38 37 35 35 36 36 35 35 34 34 32 29 27 25 26 29 29 31 33 33 34 34 35 35 35 34 33 33 33 32 32 32 32 31 30 30 31 33 35 35 35 34 34 34 34 34 33 33 32 31 31 32 32 32 32 31 32 31 31 31 30 29 29 29 30 30 29 28 27 25 24 23 22 21 20 19 20 23 28 30 28 27 26 25 26 26 27 0 0 0 0 0 0 0 0 0 0 0 0 0 0 0 0 0 0 0 0 0 0 0 0 0 0 0 0 0 0 0 0 0 0 0 0 0 0 0 0 0 0 0 0 0 0 0 0 0 0 0 0 0 0 0 0 0 0 0 0 0 0 0 0 0 0 0 0 0 0 0 0 0 0 0 0 0 0 0 0 0 0 0 0 0 0 0 0 0 0 0 0 0 0 0 0 0 0 0 0 0 0 0 0 0 0 0 0 0 0 0 0 0 0 0 0 0 0 0 0 0 0 0 0 0 0 0 0 0 0 0 0 0 0 0 0 0 0 0 0 0 0 0 0 0 0 0 0 0 0 0 0 0 0 0 0 0 0 0 0 0 0 0 0 0 0 0
32 32 32 33 33 32 33 31 30 30 31 31 32 34 36 36 37 39 41 42 43 43 45 48 48 49 51 52 53 54 54 54 54 53 52 50 47 45 45 45 48 55 63 67 68 63 59 62 67 66 65 63 64 64 63 64 64 63 58 52 52 54 54 54 52 50 49 48 48 49 49 47 46 46 46 46 45 43 42 41 40 40 41 43 48 50 52 53 53 54 55 56 57 59 61 59 58 58 57 54 52 51 49 46 44 43 44 43 42 40 38 37 38 42 46 50 49 48 45 43 42 41 40 40 41 40 39 38 38 38 35 34 32 31 31 30 31 32 32 31 32 33 32 32 32 33 34 35 36 37 38 38 37 37 37 37 37 36 35 36 37 37 38 39 38 39 40 41 42 42 44 45 45 44 45 45 45 46 46 47 49 50 50 50 49 50 51 51 52 54 54 55 56 56 57 58 58 59 59 59 61 62 63 63 62 62 61 61 61 61 60 60 60 60 59 58 58 56 54 53 53 53 55 54 54 55 56 56 56 54 53 51 49 47 48 49 49 48 47 46 45 45 46 45 45 46 46 46 47 48 46 44 44 44 44 44 46 45 44 44 43 44 45 45 46 46 46 46 46 46 46 46 46 45 45 45 45 45 45 45 45 44 44 45 46 48 48 48 49 49 48 47 46 45 41 37 35 35 35 35 35 34 34 34 34 34 34 34 34 34 34 34 34 34 34 34 34 34 34 34 34 34 34 34 34 34 34 34 34 34 34 34 34 34 34 34 34 34 34 34 34 34 34 34 34 34 34 34 34 34 34 34 34 34 34 34 34 34 34 34 34 34 34 34 34 34 34 34 34 34 34 34 34 34 34 34 34 34 34 34 34 34 34 34 34 34 34 34 34 34 34 34 34 34 34 34 34 34 34 34 34 34 35 37 38 38 37 36 34 34 34 34 34 34 34 34 34 34 34 34 34 34 34 34 34 34 35 36 38 41 44 45 43 43 43 41 40 40 39 37 35 37 37 36 35 35 35 35 36 36 38 40 40 38 36 36 38 39 40 41 41 42 44 45 43 41 42 46 51 55 58 60 60 61 61 60 59 59 59 59 59 59 58 58 58 60 61 62 60 59 58 58 58 59 58 58 58 59 60 58 56 55 57 65 72 75 76 78 78 77 76 74 74 74 75 76 78 79 79 77 76 76 77 78 78 71 62 60 60 60 60 60 59 58 57 56 56 55 54 51 50 50 49 48 48 46 44 43 44 46 47 48 48 47 46 45 44 44 45 44 43 42 43 43 43 44 45 47 48 48 48 49 49 49 51 51 52 52 50 48 48 47 48 49 50 49 48 48 47 46 46 47 46 45 45 45 43 40 40 39 38 34 31 30 30 28 27 25 24 24 23 22 22 23 23 22 21 18 16 16 17 17 15 11 7 5 3 2 0 2 6 12 14 14 13 12 12 11 11 12 13 15 15 16 17 18 17 17 18 18 19 20 21 21 21 22 23 24 25 25 26 25 24 24 24 22 20 20 20 19 19 19 18 17 17 17 16 16 15 15 14 14 15 16 14 13 11 11 11 10 10 9 9 8 6 5 4 3 2 1 -1 -1 -1 0 0 -1 -2 -3 -3 -3 -3 -3 -3 -3 -3 -2 -1 -2 -3 -3 -3 -3 -3 -2 -2 -2 -3 -2 -2 -2 -2 -2 -1 0 0 0 0 1 1 1 2 4 5 7 8 10 10 9 9 11 12 14 15 16 16 17 18 19 20 20 21 23 25 25 25 26 27 28 28 28 29 30 30 29 29 28 28 29 29 29 30 31 32 32 32 31 31 31 31 30 30 30 30 31 31 31 30 31 31 31 31 31 30 29 29 30 31 32 32 33 33 34 34 36 38 39 38 36 36 36 35 34 34 34 35 36 36 36 37 38 39 39 40 40 41 42 42 42 43 43 43 44 43 42 40 40 39 40 41 39 38 38 38 38 39 39 38 37 35 34 33 32 31 32 34 34 34 35 35 35 34 34 34 34 33 33 34 33 33 33 33 33 33 32 31 31 33 35 35 36 36 36 35 35 35 34 34 34 34 34 34 34 34 33 32 33 33 33 32 31 31 30 29 29 29 29 28 27 25 24 23 22 23 25 27 27 29 32 33 30 27 26 24 25 25 26 0 0 0 0 0 0 0 0 0 0 0 0 0 0 0 0 0 0 0 0 0 0 0 0 0 0 0 0 0 0 0 0 0 0 0 0 0 0 0 0 0 0 0 0 0 0 0 0 0 0 0 0 0 0 0 0 0 0 0 0 0 0 0 0 0 0 0 0 0 0 0 0 0 0 0 0 0 0 0 0 0 0 0 0 0 0 0 0 0 0 0 0 0 0 0 0 0 0 0 0 0 0 0 0 0 0 0 0 0 0 0 0 0 0 0 0 0 0 0 0 0 0 0 0 0 0 0 0 0 0 0 0 0 0 0 0 0 0 0 0 0 0 0 0 0 0 0 0 0 0 0 0 0 0 0 0 0 0 0 0 0 0 0 0 0 0 0
32 31 31 33 32 31 30 30 29 29 31 31 32 35 39 39 39 41 42 44 45 45 46 47 47 48 51 52 53 53 54 54 54 54 53 51 48 46 46 45 47 54 61 66 69 67 62 62 65 65 65 64 65 66 65 64 65 63 59 55 55 55 55 56 54 51 49 48 48 48 48 46 46 46 47 46 45 43 41 40 39 39 40 43 47 49 52 54 55 55 54 55 57 60 60 59 58 58 57 55 53 51 50 47 44 46 49 49 47 43 39 37 37 43 47 52 51 49 47 45 44 43 42 41 42 41 40 39 39 38 34 33 31 30 30 30 31 32 32 31 32 31 30 30 32 33 35 36 37 38 39 37 36 36 36 36 36 36 36 36 37 37 38 39 39 39 40 41 42 43 45 46 46 45 46 46 46 48 48 49 50 51 52 51 50 51 52 52 53 54 55 56 57 58 59 59 59 59 59 59 60 61 62 62 62 62 61 62 63 64 62 60 61 61 60 59 59 57 55 55 55 55 55 56 56 57 58 58 57 55 53 50 49 49 50 51 51 49 48 46 45 45 46 46 46 47 47 47 47 48 46 45 46 45 44 45 46 45 44 44 43 43 44 45 46 46 45 46 46 46 46 46 46 45 45 44 44 44 45 45 46 45 44 44 45 46 46 47 48 49 50 50 50 50 46 42 40 38 35 35 35 35 35 34 34 34 34 34 34 34 34 34 34 34 34 34 34 34 34 34 34 34 34 34 34 34 34 34 34 34 34 34 34 34 34 34 34 34 34 34 34 34 34 34 34 34 34 34 34 34 34 34 34 34 34 34 34 34 34 34 34 34 34 34 34 34 34 34 34 34 34 34 34 34 34 34 34 34 34 34 34 34 34 34 34 34 34 34 34 34 34 34 34 34 34 34 34 34 34 34 34 37 38 39 40 39 38 40 41 34 34 34 34 34 34 34 34 34 34 34 34 34 34 34 34 34 34 36 38 42 44 45 43 43 43 43 43 43 41 39 38 39 40 40 36 35 36 40 43 43 44 44 42 39 38 38 39 40 41 42 43 44 45 44 41 41 42 46 50 54 58 60 61 62 63 62 60 59 60 60 59 59 58 58 60 62 64 62 61 61 61 59 58 59 59 59 59 60 60 59 59 61 65 71 75 75 75 77 78 78 77 75 75 75 75 76 77 77 77 76 76 76 77 78 78 73 66 64 62 62 61 61 61 61 59 57 56 55 53 51 51 51 51 51 50 49 48 47 46 48 51 51 51 49 47 44 43 43 43 43 41 39 39 40 41 44 46 47 48 48 48 49 50 50 52 52 53 53 51 49 48 48 49 49 48 49 48 48 47 46 46 47 46 45 45 45 44 42 42 41 39 36 33 30 29 28 28 26 24 24 24 24 24 24 24 23 22 21 18 16 17 17 15 12 8 5 3 2 1 1 4 9 14 14 13 12 11 10 10 10 12 13 14 16 17 18 18 18 17 18 18 19 21 23 23 24 24 25 24 24 24 23 22 22 22 21 19 19 19 18 18 18 18 17 16 15 15 15 14 14 13 15 16 16 14 13 13 13 12 10 11 12 11 9 6 4 3 2 1 0 -1 -2 -2 -1 0 -1 -2 -3 -4 -3 -3 -3 -4 -4 -2 -1 0 -1 -2 -3 -2 -2 -2 -2 -3 -3 -3 -3 -2 -1 -2 -3 -2 -1 -1 -1 -1 -1 0 1 2 4 5 8 10 11 11 10 10 10 11 13 15 17 17 17 19 21 21 21 22 25 27 28 27 28 29 30 29 29 30 31 31 30 30 30 30 30 30 30 31 32 33 33 32 33 33 33 33 32 32 31 31 32 32 32 31 31 31 31 32 32 32 31 31 31 32 32 32 33 34 35 35 37 39 40 39 37 37 37 37 35 35 35 36 37 37 37 38 40 40 40 41 41 42 42 43 43 43 43 44 44 44 42 41 41 40 42 43 41 40 39 38 38 39 40 40 38 35 34 36 36 35 34 35 35 35 35 35 34 34 34 34 34 34 34 34 33 33 33 33 33 34 33 32 32 33 35 36 38 39 38 37 37 37 36 36 35 34 35 34 35 35 35 34 33 33 33 33 32 31 30 29 29 29 29 28 27 26 25 23 23 24 27 28 28 29 31 31 29 27 26 25 24 25 26 0 0 0 0 0 0 0 0 0 0 0 0 0 0 0 0 0 0 0 0 0 0 0 0 0 0 0 0 0 0 0 0 0 0 0 0 0 0 0 0 0 0 0 0 0 0 0 0 0 0 0 0 0 0 0 0 0 0 0 0 0 0 0 0 0 0 0 0 0 0 0 0 0 0 0 0 0 0 0 0 0 0 0 0 0 0 0 0 0 0 0 0 0 0 0 0 0 0 0 0 0 0 0 0 0 0 0 0 0 0 0 0 0 0 0 0 0 0 0 0 0 0 0 0 0 0 0 0 0 0 0 0 0 0 0 0 0 0 0 0 0 0 0 0 0 0 0 0 0 0 0 0 0 0 0 0 0 0 0 0 0 0 0 0 0 0 0
32 31 30 29 28 27 28 29 30 31 33 34 36 39 45 46 47 46 47 47 48 49 49 49 50 53 54 54 54 53 55 57 58 58 58 56 52 50 49 47 46 48 53 60 64 67 66 66 69 70 70 70 69 68 66 63 62 60 57 56 56 56 56 56 54 52 51 50 49 49 48 48 46 46 46 46 44 42 41 40 40 40 42 45 47 47 47 49 50 49 48 50 54 58 59 59 60 60 58 56 53 50 48 47 47 49 52 53 53 54 52 47 45 47 49 52 53 52 52 51 50 49 48 48 49 47 45 43 42 40 34 33 31 31 30 29 29 30 31 30 30 31 31 31 32 33 34 35 36 37 38 37 37 37 37 37 38 38 37 37 37 38 39 40 41 42 42 43 45 46 46 46 46 46 46 48 49 51 51 52 53 54 55 55 55 55 55 55 55 56 57 58 59 60 61 61 61 60 59 59 59 59 61 62 63 64 65 65 67 68 67 65 64 64 63 62 62 60 58 57 59 58 59 61 60 59 58 57 56 55 54 52 52 52 52 52 52 52 51 50 49 48 47 46 47 48 47 47 47 46 47 47 48 49 48 47 46 46 47 47 45 44 44 44 46 47 47 46 46 45 44 43 42 42 43 44 44 45 46 46 47 45 44 45 45 46 47 47 46 46 47 47 46 46 48 48 45 45 43 41 39 38 38 37 38 39 34 34 34 34 34 34 34 34 34 34 34 34 34 34 34 34 34 34 34 34 34 34 34 34 34 34 34 34 34 34 34 34 34 34 34 34 34 34 34 34 34 34 34 34 34 34 34 34 34 34 34 34 34 34 34 34 34 34 34 34 34 34 34 34 34 34 34 34 34 34 34 34 34 34 34 34 34 34 34 34 34 34 34 34 34 34 34 34 34 34 34 34 34 34 35 37 39 41 42 41 40 39 39 39 39 37 36 35 35 35 35 35 35 35 35 35 35 35 35 36 37 38 40 41 41 42 42 43 44 42 40 40 39 39 40 40 41 41 41 41 41 41 42 42 42 42 40 39 38 39 39 42 44 44 44 44 42 40 38 39 41 47 51 54 57 59 60 64 66 66 63 62 63 62 62 62 63 63 63 64 64 61 59 60 61 59 57 58 59 59 62 65 68 69 70 73 75 76 76 74 74 74 77 78 76 75 75 76 74 73 72 73 73 74 74 74 76 77 77 76 73 72 69 67 63 62 61 61 59 57 56 55 53 53 53 53 53 53 53 52 52 53 53 53 53 52 52 50 48 45 43 42 41 40 39 39 39 39 40 43 45 46 46 47 48 50 52 54 55 55 55 53 52 52 51 51 51 50 48 47 47 47 46 46 46 46 46 48 47 46 45 43 43 41 39 38 38 35 33 29 26 25 25 26 26 27 26 26 25 24 23 23 23 20 17 16 15 13 9 4 2 1 1 1 2 9 14 14 12 10 10 10 10 10 11 12 12 13 14 16 17 18 19 19 19 20 20 22 23 24 24 25 23 22 22 22 22 23 23 22 20 20 19 19 18 17 16 16 15 14 13 13 12 12 14 15 15 15 14 13 13 13 14 15 15 15 13 10 7 5 4 3 0 -1 -2 -2 -2 -3 -2 -2 -3 -4 -4 -4 -4 -3 -3 -3 -3 -2 -2 -2 -2 -3 -3 -2 -3 -3 -2 -2 -2 -3 -2 -1 -2 -1 -2 -2 -2 -1 -1 0 0 2 4 6 7 8 11 12 12 12 12 13 13 13 14 15 16 18 19 21 23 24 26 27 28 28 30 31 32 32 32 31 31 31 32 31 31 32 32 32 31 32 33 34 35 34 34 35 34 34 34 35 34 34 33 33 33 33 33 33 33 33 34 35 34 33 32 32 33 32 32 33 33 35 36 38 40 42 41 39 38 38 37 36 36 37 38 38 39 40 42 43 42 42 42 42 41 41 42 42 41 41 43 43 44 44 43 43 42 43 43 42 41 41 41 40 39 38 38 38 37 36 36 36 36 36 35 35 35 36 36 36 36 35 35 36 36 35 34 34 33 33 33 34 34 33 32 33 34 35 36 38 39 39 39 40 39 38 37 36 36 35 35 36 36 36 36 35 34 34 33 32 31 30 28 28 28 27 26 26 25 24 24 24 25 27 27 28 30 32 30 27 26 26 25 25 25 26 0 0 0 0 0 0 0 0 0 0 0 0 0 0 0 0 0 0 0 0 0 0 0 0 0 0 0 0 0 0 0 0 0 0 0 0 0 0 0 0 0 0 0 0 0 0 0 0 0 0 0 0 0 0 0 0 0 0 0 0 0 0 0 0 0 0 0 0 0 0 0 0 0 0 0 0 0 0 0 0 0 0 0 0 0 0 0 0 0 0 0 0 0 0 0 0 0 0 0 0 0 0 0 0 0 0 0 0 0 0 0 0 0 0 0 0 0 0 0 0 0 0 0 0 0 0 0 0 0 0 0 0 0 0 0 0 0 0 0 0 0 0 0 0 0 0 0 0 0 0 0 0 0 0 0 0 0 0 0 0 0 0 0 0 0 0 0
34 32 31 30 30 30 32 31 32 33 33 34 36 41 46 47 48 49 49 49 50 50 51 52 53 54 54 53 52 54 57 59 60 61 60 59 56 53 52 50 49 49 52 57 61 64 64 65 69 71 69 66 65 64 64 63 62 60 58 57 57 56 56 54 52 50 49 49 50 50 50 49 47 46 44 42 41 41 41 41 42 43 46 47 46 46 46 47 47 45 44 44 46 50 55 56 53 52 48 46 45 43 42 43 45 48 50 52 52 53 52 51 51 52 52 53 54 53 52 52 52 53 55 56 55 52 50 48 44 42 37 36 34 33 32 31 30 30 30 30 29 30 31 31 30 30 32 34 35 36 37 38 39 40 41 41 41 39 38 38 39 40 40 40 41 42 42 44 46 47 47 46 47 48 47 48 51 52 52 54 55 56 57 58 58 57 57 56 57 60 60 61 61 61 62 62 63 63 63 65 66 67 68 68 68 68 68 68 70 70 69 68 67 67 66 66 65 64 63 64 67 71 71 69 67 63 59 58 58 58 57 56 56 55 54 55 55 56 54 53 52 51 50 51 51 50 49 48 48 47 47 49 51 52 51 50 48 48 48 48 47 46 46 47 47 47 47 47 47 46 44 43 41 41 42 44 45 46 47 46 45 45 46 47 46 46 47 47 47 46 46 47 46 46 47 46 45 45 44 44 43 44 45 44 40 38 37 37 36 34 34 34 34 34 34 34 34 34 34 34 34 34 34 34 34 34 34 34 34 34 34 34 34 34 34 34 34 34 34 34 34 34 34 34 34 34 34 34 34 34 34 34 34 34 34 34 34 34 34 34 34 34 34 34 34 34 34 34 34 34 34 34 34 34 34 34 34 34 34 34 34 34 34 34 34 34 34 34 34 34 34 34 34 34 34 34 34 34 35 35 39 43 44 45 44 42 41 40 40 40 40 39 37 36 36 36 36 35 36 37 37 37 37 39 41 41 42 41 41 40 39 38 39 39 37 37 37 37 36 37 38 37 37 37 37 38 39 39 38 38 39 40 40 39 39 39 39 40 41 42 42 42 42 43 43 43 44 46 49 52 56 60 62 67 69 70 69 69 71 71 67 65 65 65 65 63 60 58 57 58 62 64 66 69 71 71 73 76 76 74 73 72 72 74 76 75 75 74 75 76 75 74 73 75 75 71 69 70 71 73 74 75 75 76 77 78 76 73 71 70 67 65 65 63 59 57 57 56 56 58 57 56 55 55 55 55 56 55 54 54 52 51 50 48 46 44 42 41 40 40 39 37 37 37 38 41 43 44 45 46 47 49 52 54 54 53 52 52 52 54 55 55 53 50 50 49 48 48 47 47 46 46 47 49 50 49 47 45 44 43 42 41 38 35 33 30 28 27 27 27 27 26 25 25 24 24 23 21 20 18 16 16 16 16 14 9 4 1 2 3 6 13 15 15 14 12 10 9 8 8 10 11 10 11 12 14 16 18 19 20 21 22 21 21 20 21 21 21 22 23 24 24 23 23 22 20 19 19 20 19 18 17 16 15 14 12 11 11 12 12 13 13 13 13 13 12 11 11 12 12 11 10 9 8 8 6 5 4 3 1 -1 -1 -1 -1 -2 -3 -4 -3 -2 -2 -2 -3 -3 -3 -3 -3 -3 -3 -3 -3 -2 -1 -1 -3 -2 -2 -1 -1 -2 -2 -2 -2 -2 -2 -2 0 0 1 3 4 5 5 6 9 11 11 12 13 13 13 13 13 14 15 15 16 17 19 23 24 27 29 31 32 32 32 33 33 33 34 33 34 35 34 33 33 33 33 34 34 35 36 37 36 35 35 35 35 35 35 35 35 35 35 35 35 35 35 34 34 35 36 36 35 35 34 33 33 34 35 35 34 35 37 39 42 43 42 39 39 39 38 38 39 40 41 41 42 42 42 42 43 43 43 43 42 41 41 42 43 43 42 42 42 43 43 43 44 44 43 43 43 42 42 40 39 39 38 38 38 38 37 37 38 38 37 37 37 37 36 37 37 37 37 38 37 35 34 34 34 34 35 35 33 32 33 35 36 37 37 38 38 39 39 38 37 36 37 37 36 35 35 35 36 36 36 35 34 33 32 31 29 28 27 27 27 28 27 26 25 24 24 26 26 25 26 29 32 31 28 27 27 27 26 27 28 0 0 0 0 0 0 0 0 0 0 0 0 0 0 0 0 0 0 0 0 0 0 0 0 0 0 0 0 0 0 0 0 0 0 0 0 0 0 0 0 0 0 0 0 0 0 0 0 0 0 0 0 0 0 0 0 0 0 0 0 0 0 0 0 0 0 0 0 0 0 0 0 0 0 0 0 0 0 0 0 0 0 0 0 0 0 0 0 0 0 0 0 0 0 0 0 0 0 0 0 0 0 0 0 0 0 0 0 0 0 0 0 0 0 0 0 0 0 0 0 0 0 0 0 0 0 0 0 0 0 0 0 0 0 0 0 0 0 0 0 0 0 0 0 0 0 0 0 0 0 0 0 0 0 0 0 0 0 0 0 0 0 0 0 0 0 0
41 35 31 30 31 32 33 32 33 35 36 37 39 42 46 48 51 52 52 53 54 53 52 53 53 55 56 56 55 55 58 60 61 61 60 57 55 52 51 49 48 47 50 54 57 58 56 54 53 55 55 56 59 62 65 66 66 63 62 61 59 58 58 58 55 52 50 49 50 50 48 46 43 42 40 40 40 41 43 44 47 49 48 46 45 45 45 45 45 44 43 42 42 45 48 47 45 44 43 42 40 39 38 38 39 40 42 46 48 52 52 51 53 55 55 53 52 49 46 46 46 47 49 51 52 53 53 47 40 36 33 32 31 31 31 31 31 31 31 30 29 30 31 31 31 32 33 35 36 36 38 40 40 42 42 42 42 40 39 39 39 40 40 41 44 44 44 44 44 45 46 47 47 47 47 48 50 52 53 56 57 57 59 61 61 60 61 61 60 62 63 64 64 64 65 65 67 67 66 65 66 67 68 69 69 69 69 70 71 70 69 69 68 68 69 70 69 68 67 68 70 72 70 67 66 62 60 59 59 60 59 58 58 57 57 58 59 60 60 59 58 59 60 61 60 55 53 52 52 51 50 51 52 53 53 51 50 50 50 50 49 48 48 48 48 47 46 46 48 49 49 46 45 44 43 44 44 45 45 45 46 49 51 51 49 48 47 47 46 46 46 46 46 46 46 44 43 42 41 41 40 41 44 46 46 44 40 36 33 35 35 34 34 34 34 34 34 34 34 34 34 34 34 34 34 34 34 34 34 34 34 34 34 34 34 34 34 34 34 34 34 34 34 34 34 34 34 34 34 34 34 34 34 34 34 34 34 34 34 34 34 34 34 34 34 34 34 34 34 34 34 34 34 34 34 34 34 34 34 34 34 34 34 34 34 34 34 34 34 34 34 34 34 34 35 37 35 34 36 38 41 44 44 42 40 37 36 36 36 36 37 39 39 39 39 40 40 40 39 40 41 41 42 41 40 40 40 38 37 37 37 36 34 34 35 35 35 35 36 37 38 38 37 37 37 39 41 41 41 41 42 43 43 42 41 40 39 38 38 39 40 41 43 45 47 48 49 49 49 52 55 58 60 64 66 67 68 69 71 71 69 67 66 66 65 64 63 62 63 64 65 70 77 78 77 76 74 73 74 75 75 74 73 74 75 75 75 74 75 76 75 72 71 73 74 72 71 71 71 72 75 76 77 78 80 80 80 78 70 68 66 65 63 62 60 59 59 60 59 59 58 57 56 55 55 55 55 55 56 56 53 50 49 47 45 46 46 44 43 42 41 37 35 36 37 40 42 44 45 44 45 48 49 50 51 51 52 54 55 55 56 55 54 51 49 49 47 47 46 46 47 49 50 51 50 46 42 41 41 40 38 37 36 35 34 31 29 27 27 26 26 24 23 22 21 20 20 19 18 16 15 15 15 14 12 11 8 6 6 8 10 11 12 12 10 9 8 8 8 8 9 10 10 13 14 16 16 17 19 20 21 22 22 21 20 19 19 18 19 18 18 19 20 20 19 18 18 18 17 17 18 18 17 16 15 14 12 12 13 13 13 13 13 14 14 13 13 12 12 12 12 10 9 8 8 7 7 6 5 3 1 0 0 -1 -1 0 1 0 -1 -2 -3 -3 -3 -3 -3 -4 -4 -5 -4 -3 -3 -2 -2 -2 -2 -2 -2 -3 -3 -3 -3 -3 -3 -2 -1 0 1 2 3 4 5 6 7 9 11 11 11 12 12 13 13 13 14 14 14 16 17 18 22 24 27 31 33 34 34 33 33 33 34 34 34 35 36 36 37 37 37 37 37 37 38 39 38 37 37 37 36 36 35 35 36 36 36 36 36 36 35 36 37 37 38 39 38 37 36 35 34 34 35 36 36 35 35 37 40 44 46 46 43 41 40 40 40 40 41 42 42 42 41 41 41 43 43 43 43 43 43 44 45 44 43 43 43 43 44 44 45 44 43 42 43 44 43 41 41 41 41 40 40 39 39 39 40 40 39 38 38 38 38 38 37 38 38 37 38 39 38 37 36 35 34 33 33 33 34 34 34 35 36 38 38 38 37 36 37 38 39 37 37 37 35 35 35 35 36 35 34 33 33 32 30 29 29 29 29 30 31 30 28 27 26 27 28 29 27 27 30 32 31 29 28 28 27 27 27 29 0 0 0 0 0 0 0 0 0 0 0 0 0 0 0 0 0 0 0 0 0 0 0 0 0 0 0 0 0 0 0 0 0 0 0 0 0 0 0 0 0 0 0 0 0 0 0 0 0 0 0 0 0 0 0 0 0 0 0 0 0 0 0 0 0 0 0 0 0 0 0 0 0 0 0 0 0 0 0 0 0 0 0 0 0 0 0 0 0 0 0 0 0 0 0 0 0 0 0 0 0 0 0 0 0 0 0 0 0 0 0 0 0 0 0 0 0 0 0 0 0 0 0 0 0 0 0 0 0 0 0 0 0 0 0 0 0 0 0 0 0 0 0 0 0 0 0 0 0 0 0 0 0 0 0 0 0 0 0 0 0 0 0 0 0 0 0
48 40 37 36 35 34 33 35 37 39 42 42 42 42 43 44 48 53 55 55 55 56 56 56 56 57 57 57 56 58 60 61 62 61 59 58 57 55 54 51 50 50 51 51 50 49 46 45 45 47 48 52 54 55 56 57 57 60 64 66 65 63 63 64 65 62 56 51 49 47 45 44 41 41 40 39 40 42 45 46 47 48 46 44 42 42 42 43 44 44 43 42 43 43 42 43 42 42 43 42 41 40 40 39 38 39 42 44 46 49 50 51 52 50 49 44 43 42 39 38 38 38 39 40 45 49 51 44 35 34 32 32 31 31 30 31 31 31 30 29 29 30 31 31 32 33 34 35 37 38 38 40 42 44 43 42 40 39 38 38 39 40 41 41 43 43 43 44 45 46 47 48 49 48 48 48 50 52 53 56 57 58 59 61 63 64 65 65 64 64 64 64 64 65 66 66 67 68 68 67 68 68 69 69 69 69 69 68 69 69 69 69 70 70 71 72 70 69 68 68 69 69 67 65 65 65 64 63 62 62 62 60 60 60 61 63 63 64 64 64 64 64 63 61 59 59 59 57 56 53 52 52 54 54 54 55 55 54 53 52 51 50 49 49 49 48 47 48 50 50 49 48 46 44 43 43 43 43 44 45 47 49 50 50 49 48 47 47 47 47 47 47 47 46 45 45 44 43 41 41 40 40 42 43 44 43 43 44 41 38 38 36 35 35 35 35 34 34 34 34 34 34 34 34 34 34 34 34 34 34 34 34 34 34 34 34 34 34 34 34 34 34 34 34 34 34 34 34 34 34 34 34 34 34 34 34 34 34 34 34 34 34 34 34 34 34 34 34 34 34 34 34 34 34 34 34 34 34 34 34 34 34 34 34 34 34 34 34 34 34 34 35 38 41 42 40 39 39 41 42 41 39 39 38 37 36 36 35 34 35 35 35 35 36 36 36 37 37 38 40 41 39 38 37 36 36 35 35 36 36 36 35 35 35 35 35 35 35 36 37 37 37 38 39 40 40 40 39 40 41 42 43 43 43 42 40 38 38 38 39 40 42 44 46 49 52 53 52 52 52 53 55 56 59 62 65 66 66 67 68 71 74 76 75 73 71 69 66 64 64 65 71 77 79 78 77 75 74 73 74 75 75 74 74 75 77 77 78 78 77 76 75 76 75 75 76 75 74 74 75 76 77 77 78 81 82 80 76 67 66 64 62 60 60 62 64 65 64 62 60 59 59 58 56 55 55 55 56 57 58 59 62 60 56 54 52 49 47 46 45 41 36 34 36 37 39 40 42 44 46 47 49 49 49 49 50 51 52 53 51 50 49 49 47 45 44 45 45 46 48 50 50 49 46 43 38 36 35 35 34 33 31 30 30 31 31 30 27 25 25 25 23 22 21 20 19 19 18 16 15 14 14 12 10 9 9 10 11 9 8 9 10 11 11 10 9 8 8 8 9 10 10 12 13 14 15 16 18 19 20 21 21 22 21 19 18 17 16 15 14 15 16 17 16 16 15 14 14 14 15 16 16 16 16 15 14 13 13 12 12 13 13 13 13 13 14 13 12 11 11 11 11 10 9 8 7 7 7 5 2 0 0 0 1 2 3 4 3 2 2 0 -1 -2 -2 -3 -3 -3 -3 -3 -2 -2 -2 -2 -3 -3 -3 -4 -4 -4 -4 -4 -3 -2 -2 -1 0 0 0 0 1 2 4 5 8 10 12 13 15 15 16 15 15 14 13 14 16 18 21 26 28 30 32 33 34 34 34 33 33 34 35 36 38 38 39 39 39 39 39 38 39 40 40 39 38 38 38 37 37 38 38 39 39 38 38 38 37 37 37 38 38 38 38 37 36 35 35 35 35 35 36 36 36 38 40 42 45 46 45 44 44 44 43 42 41 42 43 41 40 40 40 39 40 41 41 42 43 44 43 42 41 42 45 46 46 45 45 44 43 42 42 42 43 44 44 43 43 43 43 43 43 44 44 43 42 41 41 41 40 40 39 39 39 40 40 41 42 42 41 38 37 35 34 34 34 34 34 35 35 36 38 40 40 40 39 42 46 48 47 44 39 35 35 35 34 33 32 33 32 31 30 30 31 31 31 31 31 31 30 29 28 27 29 30 29 28 29 32 34 32 29 28 28 28 28 27 27 0 0 0 0 0 0 0 0 0 0 0 0 0 0 0 0 0 0 0 0 0 0 0 0 0 0 0 0 0 0 0 0 0 0 0 0 0 0 0 0 0 0 0 0 0 0 0 0 0 0 0 0 0 0 0 0 0 0 0 0 0 0 0 0 0 0 0 0 0 0 0 0 0 0 0 0 0 0 0 0 0 0 0 0 0 0 0 0 0 0 0 0 0 0 0 0 0 0 0 0 0 0 0 0 0 0 0 0 0 0 0 0 0 0 0 0 0 0 0 0 0 0 0 0 0 0 0 0 0 0 0 0 0 0 0 0 0 0 0 0 0 0 0 0 0 0 0 0 0 0 0 0 0 0 0 0 0 0 0 0 0 0 0 0 0 0 0
39 36 35 35 35 36 36 36 39 41 43 46 45 44 45 47 51 54 56 57 58 57 57 58 58 60 60 61 62 63 64 63 63 62 61 60 59 58 57 55 54 54 54 52 50 49 47 46 46 48 48 48 49 50 50 49 50 52 57 59 61 63 64 65 66 63 59 54 51 48 47 47 47 47 47 46 46 48 49 49 47 46 44 43 42 41 40 41 43 44 43 43 44 44 46 47 49 48 47 48 48 46 44 42 39 38 40 43 44 45 44 45 46 43 41 40 40 38 37 37 37 36 34 34 38 42 44 41 34 33 32 32 32 32 32 33 33 33 32 31 31 31 33 33 35 36 36 36 37 37 38 39 41 40 40 40 39 38 39 38 39 39 40 41 43 44 44 44 46 47 48 48 49 48 49 49 51 53 54 55 57 59 62 63 64 67 68 68 67 66 66 66 66 67 68 68 69 70 70 68 68 68 70 71 70 69 69 68 70 71 73 74 74 74 73 73 72 71 70 70 70 71 72 72 71 68 67 68 69 69 69 66 64 65 66 67 67 67 67 67 68 68 67 65 62 61 61 59 58 56 55 55 56 56 57 57 56 56 56 55 52 51 50 51 51 50 49 48 48 48 47 48 47 45 45 45 45 45 45 46 47 47 48 48 48 48 48 48 49 49 48 48 47 46 45 44 43 41 40 40 40 40 41 42 43 43 45 46 44 43 43 43 42 40 41 40 38 37 34 34 34 34 34 34 34 34 34 34 34 34 34 34 34 34 34 34 34 34 34 34 34 34 34 34 34 34 34 34 34 34 34 34 34 34 34 34 34 34 34 34 34 34 34 34 34 34 34 34 34 34 34 34 34 34 34 34 34 34 34 34 34 34 34 34 34 34 34 34 34 34 34 36 40 43 44 42 40 39 38 37 38 38 38 37 36 35 35 35 34 34 34 34 34 35 35 36 37 37 37 37 36 36 36 36 37 37 38 38 38 39 39 40 46 46 41 37 36 36 37 37 37 37 40 42 43 43 41 40 40 41 42 43 44 44 43 42 40 38 39 41 41 42 43 46 50 54 55 55 55 54 52 53 54 57 61 64 66 67 68 70 72 76 77 77 75 74 73 71 70 69 70 71 74 78 78 76 74 73 75 76 76 77 77 78 79 79 79 78 77 76 76 76 77 77 74 73 73 75 76 77 77 76 77 78 79 79 77 70 61 60 60 61 61 60 63 65 66 65 62 61 61 61 59 57 56 57 57 59 62 64 67 69 68 63 57 54 51 48 46 45 40 38 37 38 38 37 38 39 41 42 45 48 49 49 48 48 48 47 46 45 44 43 42 41 41 42 43 43 44 45 46 43 41 38 36 36 35 34 34 35 36 34 31 30 29 28 27 25 24 23 23 23 22 20 19 18 18 16 15 14 13 13 12 10 9 9 10 11 12 11 11 11 11 11 11 11 10 10 12 13 12 12 13 14 15 16 17 18 19 20 21 21 20 18 17 17 17 16 17 17 17 17 17 16 16 15 15 15 14 13 14 15 15 15 14 14 14 13 13 13 14 15 14 14 15 15 14 13 13 13 13 12 11 11 9 8 7 6 6 6 5 3 3 3 3 4 5 4 3 3 1 0 -1 -1 -2 -2 -2 -3 -2 -1 -2 -4 -3 -2 -3 -3 -4 -4 -4 -3 -3 -4 -4 -2 -2 -2 -2 -1 -1 -2 -1 1 2 7 10 12 14 16 16 16 14 13 13 13 14 16 18 22 28 29 32 33 33 33 33 34 35 36 36 37 38 39 40 40 40 41 41 41 41 41 41 41 41 39 39 39 39 40 41 42 42 41 41 40 39 38 38 38 39 39 39 39 38 37 36 37 37 37 37 37 37 38 40 42 43 44 44 44 44 45 44 42 42 42 42 42 41 40 39 39 39 40 42 44 47 48 47 45 44 43 45 46 46 46 45 45 44 43 43 43 43 44 45 45 45 44 44 44 45 46 47 47 46 45 44 42 41 40 40 40 40 41 42 42 42 41 41 41 39 38 37 36 36 36 35 35 35 36 37 38 39 40 41 41 42 43 43 43 42 39 36 36 36 34 33 32 32 32 32 31 32 31 31 30 30 30 28 27 26 27 27 28 29 28 29 32 36 37 33 30 29 29 29 28 27 28 0 0 0 0 0 0 0 0 0 0 0 0 0 0 0 0 0 0 0 0 0 0 0 0 0 0 0 0 0 0 0 0 0 0 0 0 0 0 0 0 0 0 0 0 0 0 0 0 0 0 0 0 0 0 0 0 0 0 0 0 0 0 0 0 0 0 0 0 0 0 0 0 0 0 0 0 0 0 0 0 0 0 0 0 0 0 0 0 0 0 0 0 0 0 0 0 0 0 0 0 0 0 0 0 0 0 0 0 0 0 0 0 0 0 0 0 0 0 0 0 0 0 0 0 0 0 0 0 0 0 0 0 0 0 0 0 0 0 0 0 0 0 0 0 0 0 0 0 0 0 0 0 0 0 0 0 0 0 0 0 0 0 0 0 0 0 0
38 36 36 36 37 38 39 38 40 41 44 47 47 48 49 50 52 54 56 58 59 58 58 57 58 60 60 61 63 64 64 64 63 63 62 60 58 58 58 57 56 56 56 55 53 53 51 49 49 50 50 48 47 46 45 46 47 49 52 55 57 60 61 63 64 64 60 56 54 52 50 50 51 51 51 50 49 49 50 49 47 45 45 44 41 40 39 40 42 43 43 44 45 46 49 52 52 52 51 51 50 46 43 41 40 39 39 40 40 41 41 41 41 39 38 39 40 38 37 38 38 37 35 33 34 38 40 37 34 33 33 33 32 33 34 34 34 33 32 31 31 32 34 34 36 37 37 37 38 37 37 38 40 39 38 38 38 39 40 40 40 41 41 42 43 45 45 45 45 46 47 48 49 49 49 51 51 53 54 56 58 60 63 64 65 67 67 68 67 67 67 67 67 67 68 68 69 70 71 69 68 68 69 70 69 69 70 70 72 74 75 76 77 77 76 75 73 72 71 71 71 72 75 77 76 73 71 71 72 71 70 68 66 66 67 68 68 68 68 68 68 69 68 67 64 62 62 60 59 58 57 56 57 58 59 58 57 56 57 57 55 54 54 54 53 52 51 50 49 49 48 48 48 46 46 46 46 46 47 48 49 48 47 48 48 48 48 48 49 48 48 47 48 47 45 44 44 42 40 40 40 40 40 41 42 43 43 44 43 43 43 44 43 43 44 42 40 37 36 34 34 34 34 34 34 34 34 34 34 34 34 34 34 34 34 34 34 34 34 34 34 34 34 34 34 34 34 34 34 34 34 34 34 34 34 34 34 34 34 34 34 34 34 34 34 34 34 34 34 34 34 34 34 34 34 34 34 34 34 34 34 34 34 34 34 34 34 34 34 34 35 37 42 44 44 42 39 38 37 37 38 37 37 36 35 34 34 35 36 35 35 35 35 35 36 38 39 38 37 37 37 36 36 37 38 39 41 42 42 42 43 44 49 51 48 42 38 38 37 37 37 38 40 41 43 43 42 40 40 40 41 42 43 44 44 44 42 39 39 41 41 42 42 45 50 54 55 55 55 55 55 55 56 58 61 64 67 68 69 71 73 76 76 76 74 73 72 71 69 68 68 69 72 77 77 76 74 74 75 76 76 77 77 79 82 80 79 77 77 77 77 77 78 76 73 71 70 72 73 76 77 76 76 77 78 78 77 72 63 61 59 60 62 63 64 65 66 65 62 61 60 60 59 57 56 58 59 62 64 65 68 70 68 62 57 53 49 46 44 43 40 38 38 39 39 38 38 39 40 41 44 46 48 47 46 46 45 44 43 42 42 41 40 40 40 41 43 43 44 43 41 39 38 37 36 36 36 36 36 38 38 35 32 30 29 28 26 26 24 23 23 23 21 19 18 17 17 16 14 13 12 12 11 10 9 9 11 12 13 13 13 12 12 12 12 12 12 14 15 15 13 13 14 15 15 16 17 18 19 20 20 21 19 18 17 17 17 17 18 18 17 17 17 17 16 15 14 14 14 13 13 14 15 14 14 13 14 15 15 15 16 16 16 15 16 15 13 12 11 10 10 10 9 10 9 7 6 6 5 6 6 4 4 3 3 3 4 5 5 4 2 0 0 0 -1 -1 -2 -3 -2 -1 -2 -3 -3 -3 -3 -3 -3 -2 -2 -3 -3 -4 -4 -3 -3 -2 -2 -1 -1 -2 -2 0 2 6 10 12 14 18 18 17 14 13 12 13 14 16 20 24 29 30 32 33 33 34 34 35 36 37 37 38 39 40 41 41 41 42 42 41 41 42 42 42 41 41 41 41 41 41 42 43 43 43 42 41 40 39 38 39 39 39 39 39 38 38 38 38 38 38 38 38 38 39 41 42 42 43 42 42 42 42 42 42 42 42 41 40 40 40 40 40 40 41 43 45 47 48 48 47 46 46 45 46 46 47 46 46 45 44 44 44 44 44 44 45 45 45 45 45 46 47 48 48 47 44 43 43 42 41 41 41 41 42 43 43 42 42 42 41 40 39 38 38 37 36 35 35 34 35 36 37 38 38 39 39 40 41 41 41 40 37 35 35 35 35 34 34 33 34 33 32 32 31 31 31 31 29 27 26 25 25 24 25 26 27 28 30 35 36 33 29 28 28 28 28 28 28 0 0 0 0 0 0 0 0 0 0 0 0 0 0 0 0 0 0 0 0 0 0 0 0 0 0 0 0 0 0 0 0 0 0 0 0 0 0 0 0 0 0 0 0 0 0 0 0 0 0 0 0 0 0 0 0 0 0 0 0 0 0 0 0 0 0 0 0 0 0 0 0 0 0 0 0 0 0 0 0 0 0 0 0 0 0 0 0 0 0 0 0 0 0 0 0 0 0 0 0 0 0 0 0 0 0 0 0 0 0 0 0 0 0 0 0 0 0 0 0 0 0 0 0 0 0 0 0 0 0 0 0 0 0 0 0 0 0 0 0 0 0 0 0 0 0 0 0 0 0 0 0 0 0 0 0 0 0 0 0 0 0 0 0 0 0 0
35 35 36 37 37 38 40 42 44 45 47 49 50 52 54 54 55 56 57 59 60 60 59 59 60 62 64 64 65 65 65 65 65 65 64 62 61 59 59 59 59 61 62 61 59 59 59 58 59 59 58 54 52 50 49 50 51 52 53 55 57 59 60 61 62 63 63 62 61 60 59 57 55 55 55 55 54 54 52 51 48 47 47 45 42 42 41 40 41 43 45 46 48 49 51 53 52 52 51 52 50 46 43 41 38 37 37 37 37 39 40 39 40 39 39 39 39 39 40 40 40 39 38 37 37 36 35 35 36 36 35 35 35 35 36 35 34 33 33 32 31 32 33 34 35 36 36 37 37 37 37 38 39 39 37 37 37 38 40 41 42 43 43 44 45 45 45 44 44 45 46 47 48 49 49 51 52 53 54 55 57 60 62 64 65 65 66 68 69 68 68 68 69 69 69 68 69 70 71 71 70 70 70 71 72 72 72 73 74 74 75 76 77 77 78 77 75 74 73 72 72 74 76 77 77 76 75 75 74 74 74 74 73 71 69 69 69 69 70 69 69 70 71 69 68 68 68 66 64 61 59 59 59 60 61 60 59 57 57 59 62 61 58 56 55 54 54 54 53 52 53 52 52 52 50 49 49 49 50 51 50 48 47 47 47 47 48 48 48 48 47 48 48 47 46 45 43 40 38 38 38 38 37 37 38 38 39 39 40 42 42 43 42 43 44 45 45 40 36 35 34 34 34 34 34 34 34 34 34 34 34 34 34 34 34 34 34 34 34 34 34 34 34 34 34 34 34 34 34 34 34 34 34 34 34 34 34 34 34 34 34 34 34 34 34 34 34 34 34 34 34 34 34 34 34 34 34 34 34 34 34 34 34 34 34 34 34 34 34 34 42 44 46 47 45 44 43 42 39 37 38 37 36 35 35 35 36 37 37 37 35 35 35 35 35 36 37 37 37 36 36 36 37 39 41 42 43 43 42 41 41 42 44 45 43 41 40 39 38 37 36 37 38 39 39 39 38 38 40 40 41 41 43 44 44 44 43 43 42 42 42 41 42 44 48 51 53 55 57 58 60 59 59 59 60 60 62 63 66 70 74 76 77 77 75 73 71 69 68 67 67 65 68 75 78 78 77 78 79 79 78 78 80 82 81 81 81 79 78 76 75 76 76 73 69 66 64 63 64 68 71 71 72 74 78 78 78 75 68 64 59 59 62 64 65 64 63 63 61 60 60 60 59 58 57 58 60 62 64 66 69 68 66 59 52 47 44 42 40 37 36 36 38 40 39 38 38 39 40 40 42 43 43 41 39 39 38 38 39 38 38 38 38 38 38 37 38 39 40 37 35 36 36 36 35 35 35 35 35 34 35 36 33 30 28 26 24 21 20 19 19 19 17 16 15 15 15 14 12 11 10 9 8 7 6 6 9 11 14 15 16 16 15 15 15 16 17 18 18 17 15 14 14 15 15 15 16 17 18 19 20 20 19 18 17 17 17 18 18 18 18 19 18 18 16 15 15 15 15 15 15 14 14 14 14 15 17 17 16 16 16 15 15 14 14 14 13 11 9 8 8 8 7 6 6 5 5 6 6 5 5 4 4 3 3 3 4 4 5 4 1 0 0 0 0 -1 -2 -2 -1 -2 -2 -2 -2 -3 -3 -3 -2 -1 -2 -3 -3 -2 -1 0 0 0 0 0 -1 -1 0 2 3 8 12 14 16 18 18 18 16 13 11 12 13 16 24 32 36 37 37 35 34 34 35 36 36 37 38 39 40 41 42 43 43 43 43 42 42 43 44 43 42 42 44 44 44 44 44 44 44 43 42 41 41 40 39 40 40 40 40 39 39 40 40 41 41 40 40 40 40 41 41 40 40 40 40 40 39 39 39 39 39 38 39 40 40 40 40 40 41 44 44 44 45 43 42 44 46 47 45 45 45 47 47 47 47 48 47 46 45 45 44 44 45 45 45 46 46 48 49 48 47 45 44 44 43 42 42 42 42 43 44 44 44 44 43 43 42 42 40 38 37 37 37 36 35 36 36 37 38 38 38 38 39 39 39 39 39 38 36 35 35 35 35 36 36 35 34 34 35 33 31 30 30 28 27 26 25 24 25 25 24 25 28 29 31 32 32 30 29 29 29 28 28 28 0 0 0 0 0 0 0 0 0 0 0 0 0 0 0 0 0 0 0 0 0 0 0 0 0 0 0 0 0 0 0 0 0 0 0 0 0 0 0 0 0 0 0 0 0 0 0 0 0 0 0 0 0 0 0 0 0 0 0 0 0 0 0 0 0 0 0 0 0 0 0 0 0 0 0 0 0 0 0 0 0 0 0 0 0 0 0 0 0 0 0 0 0 0 0 0 0 0 0 0 0 0 0 0 0 0 0 0 0 0 0 0 0 0 0 0 0 0 0 0 0 0 0 0 0 0 0 0 0 0 0 0 0 0 0 0 0 0 0 0 0 0 0 0 0 0 0 0 0 0 0 0 0 0 0 0 0 0 0 0 0 0 0 0 0 0 0
35 35 35 37 37 37 37 38 40 42 45 47 51 55 59 60 61 59 58 59 60 61 62 63 62 63 64 64 65 66 65 66 67 68 69 67 64 62 62 62 61 61 62 62 63 63 62 62 62 64 64 62 60 56 54 53 52 53 55 57 59 61 61 61 61 61 60 59 60 60 60 57 55 55 54 55 55 56 54 53 50 47 46 45 44 44 43 41 40 42 46 48 49 49 51 51 49 49 49 50 48 44 42 40 39 38 39 39 39 40 40 40 41 40 40 40 41 41 41 41 41 40 39 39 38 37 37 36 36 36 36 36 35 34 33 32 31 30 30 30 31 33 33 33 35 36 36 36 37 38 39 40 41 40 38 38 38 38 38 40 41 42 42 43 44 44 44 44 45 46 47 48 49 50 49 50 52 53 54 56 59 62 63 62 62 63 65 66 66 66 66 67 68 68 68 68 69 69 69 69 69 69 68 70 71 71 71 72 73 73 73 74 75 76 77 76 75 74 74 73 73 74 76 75 75 75 74 74 74 74 75 76 76 75 74 74 74 73 73 72 72 72 73 72 71 71 71 69 68 66 64 64 64 64 63 62 60 58 57 59 65 68 63 58 56 55 55 55 55 55 55 55 56 56 54 53 53 53 53 51 49 48 48 47 46 47 48 48 48 48 50 51 49 48 48 46 44 42 39 39 38 38 37 37 37 38 39 39 41 43 43 42 41 41 42 44 46 47 44 38 37 36 35 34 34 34 34 34 34 34 34 34 34 34 34 34 34 34 34 34 34 34 34 34 34 34 34 34 34 34 34 34 34 34 34 34 34 34 34 34 34 34 34 34 34 34 34 34 34 34 34 34 34 34 34 34 34 34 34 34 34 34 34 34 34 34 34 34 35 44 50 49 47 45 45 46 44 43 40 38 37 37 37 36 36 37 36 37 37 37 37 36 36 35 35 35 36 36 36 36 35 36 38 41 43 44 45 43 42 41 41 41 40 39 38 38 38 38 38 39 39 39 38 37 37 36 36 38 41 41 41 40 41 43 44 45 45 45 45 43 43 42 42 43 45 49 52 56 58 59 59 60 60 59 58 57 59 61 65 68 72 74 76 76 75 73 70 68 69 69 70 70 72 77 79 80 81 83 84 83 82 81 81 81 79 78 78 77 77 77 75 73 71 68 65 64 64 65 65 65 63 63 64 65 68 71 74 74 68 66 62 60 60 61 61 60 59 58 57 58 59 59 58 56 54 55 57 63 65 63 60 58 56 51 48 44 41 38 36 34 34 36 39 40 39 38 37 38 38 37 37 39 40 38 35 35 36 37 38 37 37 38 37 37 37 36 36 36 36 36 36 36 36 35 34 33 34 34 34 33 33 32 30 26 24 21 17 15 13 11 11 13 14 12 11 11 11 10 9 9 8 7 4 3 5 7 11 13 15 17 18 18 18 18 19 20 21 21 20 19 17 16 14 14 14 15 16 17 19 20 20 19 18 17 17 18 18 19 18 18 18 18 18 18 17 17 17 17 16 16 15 15 15 15 16 17 18 16 15 15 15 15 14 13 13 12 11 11 10 10 10 8 7 6 4 3 3 3 3 4 4 5 6 7 7 5 4 6 8 8 5 2 0 0 -1 0 0 0 -1 -2 -2 -2 -2 -2 -2 -2 -1 -1 -2 -2 0 1 1 2 3 3 3 2 0 -2 -1 3 5 8 12 16 18 19 19 17 14 13 12 14 15 18 26 31 34 34 35 35 34 35 36 36 36 36 37 39 40 40 41 43 44 44 44 43 43 43 42 42 42 43 45 45 45 45 45 46 45 45 43 42 41 43 42 42 42 42 41 42 43 44 44 44 44 43 42 43 43 41 40 40 40 40 40 39 39 38 38 37 37 38 39 40 39 39 40 41 42 45 45 44 42 41 41 43 44 45 45 46 47 49 50 50 51 51 49 48 47 47 47 46 45 46 46 46 47 47 48 48 47 45 44 44 44 44 44 44 43 42 43 44 45 46 45 44 43 43 42 41 40 39 39 39 39 39 38 38 39 39 39 39 40 39 39 38 36 36 36 36 36 36 36 36 36 34 33 33 34 33 31 29 29 27 26 25 25 25 25 26 26 27 29 30 31 32 32 30 28 27 28 29 28 28 0 0 0 0 0 0 0 0 0 0 0 0 0 0 0 0 0 0 0 0 0 0 0 0 0 0 0 0 0 0 0 0 0 0 0 0 0 0 0 0 0 0 0 0 0 0 0 0 0 0 0 0 0 0 0 0 0 0 0 0 0 0 0 0 0 0 0 0 0 0 0 0 0 0 0 0 0 0 0 0 0 0 0 0 0 0 0 0 0 0 0 0 0 0 0 0 0 0 0 0 0 0 0 0 0 0 0 0 0 0 0 0 0 0 0 0 0 0 0 0 0 0 0 0 0 0 0 0 0 0 0 0 0 0 0 0 0 0 0 0 0 0 0 0 0 0 0 0 0 0 0 0 0 0 0 0 0 0 0 0 0 0 0 0 0 0 0
32 34 33 33 34 35 35 36 36 36 38 45 59 69 75 76 76 69 62 60 61 62 63 64 64 64 63 63 65 66 67 67 68 69 70 71 70 69 69 70 68 66 65 64 65 65 64 63 64 64 63 61 60 59 58 57 57 57 58 59 61 63 64 65 62 59 57 57 58 58 56 55 55 55 55 54 53 54 54 53 51 48 47 46 46 46 44 41 40 43 48 51 52 51 50 51 50 49 48 48 45 41 40 39 39 39 39 40 41 43 43 41 40 40 41 40 40 40 40 40 40 40 38 37 36 36 35 34 34 33 33 33 32 32 32 32 31 30 30 31 32 33 34 34 35 36 36 36 37 38 38 39 40 40 39 39 39 39 40 41 42 43 44 44 44 44 44 44 45 46 47 48 49 50 51 52 52 54 55 57 59 60 60 60 61 63 64 64 65 65 65 64 65 66 67 68 68 69 70 69 68 68 69 70 70 71 70 70 71 72 73 75 75 75 76 76 76 76 75 74 73 73 73 74 74 74 74 73 73 74 73 75 76 76 75 74 74 74 75 75 74 74 73 73 73 72 70 69 69 69 68 67 67 67 66 64 62 61 60 61 65 68 67 63 59 57 57 57 56 56 58 59 59 59 57 55 54 53 51 50 50 50 50 50 48 48 48 48 48 47 45 45 45 44 44 44 42 41 41 40 39 39 38 38 37 36 38 40 44 44 43 42 42 43 44 44 44 45 47 50 45 39 38 37 35 34 34 34 35 35 34 34 34 34 34 34 34 34 34 34 34 34 34 34 34 34 34 34 34 34 34 34 34 34 34 34 34 34 34 34 34 34 34 34 34 34 34 34 34 34 34 34 34 34 34 34 34 34 34 34 34 34 34 34 34 34 34 35 44 48 47 47 46 47 48 47 45 44 42 39 38 37 37 36 37 38 38 38 38 38 38 38 38 37 37 37 37 36 36 35 35 37 40 42 43 43 44 44 43 41 40 40 39 38 37 37 37 37 38 39 40 40 39 38 37 37 36 38 40 40 41 43 44 45 45 46 47 47 47 46 46 46 45 45 48 52 55 58 60 63 65 64 62 60 60 61 61 62 65 68 72 72 73 73 72 70 67 66 65 65 66 69 72 76 79 79 80 82 83 82 81 79 79 77 75 75 77 81 83 82 79 73 70 66 64 63 65 65 65 64 62 61 61 62 61 63 65 65 64 64 63 61 60 61 61 60 57 55 54 52 52 52 53 52 51 50 51 54 56 53 50 47 46 43 42 42 40 39 38 37 36 36 39 41 40 38 37 36 35 34 33 34 35 37 37 37 37 37 38 39 39 39 38 37 36 36 36 36 36 35 35 33 32 31 30 32 32 31 31 30 28 24 20 16 15 15 13 13 13 12 12 10 8 7 7 6 6 7 8 9 7 6 5 4 7 13 18 19 19 20 20 19 20 20 20 21 22 23 22 21 20 19 18 17 17 19 22 23 23 22 21 20 19 18 18 19 19 19 18 18 18 19 19 19 19 18 17 17 17 18 17 18 19 18 18 18 17 17 16 16 15 15 13 12 10 9 9 9 8 8 8 8 9 8 6 3 2 2 4 5 5 5 5 6 6 5 4 5 6 7 7 4 2 1 0 1 1 0 0 -1 -2 -2 -1 0 -1 -1 -1 1 2 3 4 5 6 4 4 5 5 4 3 2 4 6 7 10 14 18 20 20 19 16 14 13 14 19 22 26 30 33 33 33 34 35 35 36 37 37 37 37 38 39 39 40 42 43 44 44 44 44 44 43 43 44 45 45 46 46 46 46 45 45 45 45 44 43 43 44 44 44 43 43 43 44 45 45 45 45 46 48 49 47 46 43 40 39 39 39 39 39 39 38 38 38 38 39 39 39 39 40 40 40 42 44 44 43 42 41 43 44 45 46 47 48 49 52 53 53 51 50 49 48 48 48 48 48 49 49 49 49 48 48 48 48 47 47 46 46 46 46 46 44 43 43 44 44 44 45 43 42 42 42 41 41 42 42 41 41 41 41 40 41 41 41 40 40 41 39 38 37 36 35 36 36 36 36 35 34 34 34 34 33 32 31 30 28 28 26 25 24 25 25 25 25 24 25 29 30 32 32 31 28 26 25 25 26 27 28 0 0 0 0 0 0 0 0 0 0 0 0 0 0 0 0 0 0 0 0 0 0 0 0 0 0 0 0 0 0 0 0 0 0 0 0 0 0 0 0 0 0 0 0 0 0 0 0 0 0 0 0 0 0 0 0 0 0 0 0 0 0 0 0 0 0 0 0 0 0 0 0 0 0 0 0 0 0 0 0 0 0 0 0 0 0 0 0 0 0 0 0 0 0 0 0 0 0 0 0 0 0 0 0 0 0 0 0 0 0 0 0 0 0 0 0 0 0 0 0 0 0 0 0 0 0 0 0 0 0 0 0 0 0 0 0 0 0 0 0 0 0 0 0 0 0 0 0 0 0 0 0 0 0 0 0 0 0 0 0 0 0 0 0 0 0 0
30 31 31 30 31 32 34 35 37 38 42 50 63 69 71 71 71 66 62 61 63 64 65 66 65 65 65 65 64 65 67 67 68 69 71 71 71 71 71 72 71 70 70 71 70 69 68 68 68 67 66 63 62 61 60 60 60 59 58 61 61 61 61 61 60 57 55 54 53 53 53 53 53 53 53 53 53 53 54 54 52 50 48 46 46 46 45 43 42 43 48 51 53 51 50 51 52 52 51 49 45 42 41 40 40 39 40 42 43 44 43 42 41 40 40 39 39 39 38 38 38 38 37 36 36 35 34 33 32 32 31 31 30 29 30 31 31 31 31 31 33 33 34 34 35 36 37 37 37 38 39 39 38 38 39 39 40 42 43 43 42 43 44 45 45 45 45 46 47 47 48 50 49 49 50 51 52 52 53 55 57 58 59 60 60 61 61 63 63 63 63 64 65 65 66 67 67 69 70 69 67 67 67 69 70 70 70 71 71 71 72 73 75 75 74 75 77 78 76 75 74 73 71 72 72 73 74 75 75 75 74 72 73 73 73 74 74 74 75 76 76 75 75 74 75 73 71 71 71 69 68 68 68 68 67 67 65 63 63 63 63 64 65 63 61 60 59 58 57 57 58 58 58 57 56 55 54 53 52 51 52 52 53 53 54 53 50 50 49 47 43 42 41 41 40 40 42 46 53 55 56 53 50 48 47 46 45 44 45 45 44 43 42 43 43 43 43 44 46 47 48 47 46 45 44 41 38 36 36 35 34 36 34 34 34 34 34 34 34 34 34 34 34 34 34 34 34 34 34 34 34 34 34 34 34 34 34 34 34 34 34 34 34 34 34 34 34 34 34 34 34 34 34 34 34 34 34 34 34 34 34 34 34 34 34 34 42 47 48 46 46 46 46 48 49 49 47 46 44 42 40 39 38 37 38 39 39 39 39 40 40 40 40 39 39 39 38 37 37 37 37 38 40 42 43 43 42 41 40 40 40 40 40 39 39 39 39 39 39 39 40 40 40 40 40 39 39 41 41 41 43 45 46 48 50 51 52 52 51 52 52 50 49 49 51 53 54 55 57 61 65 67 67 68 68 69 70 71 69 70 71 71 72 72 71 69 67 65 64 65 66 69 72 77 81 82 84 85 84 83 83 82 82 78 73 70 72 76 79 79 77 72 68 65 65 65 64 63 63 62 61 60 61 60 59 60 62 62 63 63 61 59 58 59 59 59 58 55 51 48 47 47 47 47 48 47 48 48 49 47 46 44 43 41 40 38 37 36 36 35 34 32 34 35 35 36 36 34 33 32 30 29 29 31 33 33 35 37 38 39 40 39 37 36 35 35 34 34 34 33 32 31 30 29 29 28 27 27 26 22 18 15 13 13 14 16 17 17 17 16 15 12 10 7 6 5 5 5 5 4 4 4 4 8 14 19 20 19 20 21 21 21 21 21 20 20 21 22 21 20 20 19 18 17 17 19 23 25 26 25 24 23 22 21 20 19 19 18 18 19 19 18 19 21 21 22 23 24 26 27 28 29 29 27 24 23 22 25 28 27 22 15 12 10 9 8 8 7 7 6 6 7 7 6 6 7 8 7 6 6 3 3 3 4 2 1 1 0 1 4 5 4 0 0 -1 0 0 0 0 -1 -1 -1 -1 0 -1 -1 1 3 5 7 8 9 9 9 9 10 10 11 10 10 11 12 11 12 15 18 20 20 18 15 13 14 16 21 25 31 32 33 34 34 34 35 36 37 37 37 38 39 40 41 41 42 43 44 45 45 45 45 45 45 45 46 46 46 47 48 47 47 46 45 46 45 44 44 44 44 44 44 44 44 43 43 44 45 45 45 46 47 48 46 45 44 43 42 41 39 38 37 37 38 39 39 39 38 38 38 38 39 40 41 42 43 42 42 42 42 44 45 46 46 48 50 52 53 54 54 52 50 49 50 50 50 50 50 49 49 49 48 48 48 48 48 48 48 47 47 46 46 46 45 44 45 45 45 44 43 41 41 41 41 41 42 43 42 41 41 42 42 42 42 43 43 42 41 41 39 38 36 36 37 37 38 38 38 36 35 34 34 33 33 33 31 30 27 27 25 23 22 22 22 22 22 22 23 25 27 30 30 28 26 25 24 24 24 24 25 0 0 0 0 0 0 0 0 0 0 0 0 0 0 0 0 0 0 0 0 0 0 0 0 0 0 0 0 0 0 0 0 0 0 0 0 0 0 0 0 0 0 0 0 0 0 0 0 0 0 0 0 0 0 0 0 0 0 0 0 0 0 0 0 0 0 0 0 0 0 0 0 0 0 0 0 0 0 0 0 0 0 0 0 0 0 0 0 0 0 0 0 0 0 0 0 0 0 0 0 0 0 0 0 0 0 0 0 0 0 0 0 0 0 0 0 0 0 0 0 0 0 0 0 0 0 0 0 0 0 0 0 0 0 0 0 0 0 0 0 0 0 0 0 0 0 0 0 0 0 0 0 0 0 0 0 0 0 0 0 0 0 0 0 0 0 0
31 32 32 33 33 34 34 35 37 38 43 53 61 64 64 63 61 59 58 60 63 65 68 69 68 67 67 67 68 69 69 69 69 69 72 72 72 72 73 74 75 74 73 73 72 70 68 69 70 69 68 65 64 62 61 61 60 60 60 60 60 60 60 60 58 56 55 53 52 50 50 49 50 50 52 54 55 54 53 52 51 50 47 45 44 44 44 43 43 49 55 58 58 53 50 50 51 51 51 47 44 43 42 42 43 42 42 43 43 43 41 39 38 39 39 38 38 36 36 36 36 37 36 35 35 35 34 33 32 31 31 31 30 30 30 30 30 31 31 31 31 32 33 33 34 35 35 36 38 39 39 38 37 37 39 39 42 45 46 45 44 44 45 45 45 46 46 46 47 47 48 49 49 51 52 51 50 51 53 56 57 57 58 59 60 60 61 62 63 63 63 64 64 63 65 67 67 67 68 68 66 66 66 66 67 68 68 69 70 69 69 70 72 72 72 74 76 77 75 73 72 73 73 72 73 74 75 75 75 76 76 75 74 74 73 73 73 73 73 74 75 76 76 76 76 74 71 70 70 69 69 69 68 68 67 67 66 66 64 63 62 60 59 59 59 60 60 59 58 57 56 54 55 57 59 58 58 57 57 57 56 56 55 56 61 63 61 58 53 50 47 46 45 44 42 40 43 51 59 61 64 65 66 63 59 57 56 53 49 46 45 44 43 43 43 44 44 46 48 47 46 47 48 48 47 46 47 47 46 46 44 40 38 39 37 34 34 34 34 34 34 34 34 34 34 34 34 34 34 34 34 34 34 34 34 34 34 34 34 34 34 34 34 34 34 34 34 34 34 34 34 34 34 34 34 34 34 34 34 34 34 34 34 34 37 40 46 46 45 45 45 45 46 45 47 48 48 48 47 46 44 43 42 41 42 43 42 41 41 46 51 48 44 41 40 39 38 37 37 38 39 39 41 42 43 43 42 42 42 42 43 42 43 43 43 42 42 42 42 41 41 40 41 42 42 41 41 42 42 43 45 47 49 51 52 52 52 52 52 53 53 53 52 51 50 50 51 53 56 59 62 66 67 68 68 68 69 70 69 68 68 68 69 69 69 67 66 66 65 66 68 70 73 75 78 79 81 81 80 80 81 85 83 77 69 65 66 68 70 71 72 70 69 67 67 65 64 64 64 64 64 64 63 62 61 60 62 63 63 63 61 59 58 57 55 54 53 51 51 50 49 49 48 48 49 49 50 51 52 51 50 49 48 46 42 40 39 37 36 35 33 31 31 31 31 31 30 29 28 27 25 25 26 30 32 32 33 35 37 38 39 40 39 38 35 32 31 31 30 31 30 29 28 27 26 25 23 22 22 18 13 10 11 16 19 21 19 18 17 17 16 14 13 11 7 3 2 2 2 2 2 3 9 18 22 22 20 19 20 20 20 21 20 20 20 21 22 22 22 21 20 19 18 18 18 20 22 25 26 26 25 23 22 20 19 20 20 20 20 19 19 20 21 22 22 23 24 26 31 36 38 37 34 32 27 24 24 26 25 24 21 16 12 11 10 9 8 7 6 6 6 7 7 6 8 10 11 10 9 9 7 5 5 3 2 1 1 0 -1 -1 -1 -1 -2 -2 -3 -2 -1 -2 -1 0 -1 -1 0 2 2 2 2 3 5 7 8 9 10 10 11 13 14 16 15 14 15 15 16 17 18 19 20 18 17 16 15 17 21 26 30 33 34 35 35 35 36 38 39 39 38 38 39 40 41 41 43 44 45 46 46 46 46 47 47 46 46 46 46 46 46 46 46 46 45 46 47 46 45 44 44 44 43 43 43 43 44 45 46 47 48 48 47 47 46 46 46 45 43 42 41 39 38 38 39 38 38 39 39 39 38 37 38 39 39 41 42 43 43 43 43 44 45 46 47 48 50 51 53 52 52 52 52 51 50 50 50 50 50 50 50 50 50 50 50 49 49 49 49 48 47 47 47 46 46 45 45 45 44 44 44 43 42 41 41 41 41 42 43 43 42 42 44 44 43 42 42 42 42 41 41 40 39 37 37 38 39 38 38 38 36 35 34 33 33 31 30 29 27 25 24 22 20 19 18 19 21 22 23 22 22 24 28 29 26 23 22 23 24 24 25 25 0 0 0 0 0 0 0 0 0 0 0 0 0 0 0 0 0 0 0 0 0 0 0 0 0 0 0 0 0 0 0 0 0 0 0 0 0 0 0 0 0 0 0 0 0 0 0 0 0 0 0 0 0 0 0 0 0 0 0 0 0 0 0 0 0 0 0 0 0 0 0 0 0 0 0 0 0 0 0 0 0 0 0 0 0 0 0 0 0 0 0 0 0 0 0 0 0 0 0 0 0 0 0 0 0 0 0 0 0 0 0 0 0 0 0 0 0 0 0 0 0 0 0 0 0 0 0 0 0 0 0 0 0 0 0 0 0 0 0 0 0 0 0 0 0 0 0 0 0 0 0 0 0 0 0 0 0 0 0 0 0 0 0 0 0 0 0
30 30 31 32 33 34 34 35 37 38 42 49 56 60 60 59 57 56 56 59 62 64 67 68 67 67 68 68 68 70 71 69 68 69 71 72 72 73 74 76 77 77 76 74 73 70 69 70 70 69 68 65 64 63 62 61 60 60 60 59 59 59 59 60 59 58 57 55 53 50 48 48 49 49 51 54 55 53 52 51 51 50 46 43 43 43 43 43 43 48 55 58 58 53 51 51 51 51 50 46 44 43 43 44 44 44 44 43 43 42 41 39 38 38 38 38 37 36 35 36 36 36 35 35 35 34 34 33 31 31 30 30 30 30 30 30 30 31 31 31 31 32 33 34 35 35 36 37 38 39 40 39 39 39 40 40 43 46 46 45 44 45 45 45 46 46 46 47 47 48 49 49 49 51 52 51 51 52 53 55 56 55 57 58 59 60 61 61 62 62 62 63 62 63 65 66 67 67 67 67 67 67 66 67 68 68 68 69 69 68 68 68 70 70 71 72 73 74 73 72 71 71 72 71 71 72 72 73 75 76 77 76 75 75 74 73 73 73 73 74 75 76 76 76 76 74 71 69 69 69 69 69 68 67 67 67 67 66 65 64 62 61 59 58 58 58 59 59 58 56 55 53 54 58 58 58 58 57 58 58 57 56 55 58 64 67 65 64 60 55 52 50 48 47 44 43 49 58 63 64 66 68 69 68 64 62 59 56 51 47 46 44 43 43 44 44 45 47 50 49 47 46 46 45 46 46 47 48 49 50 46 42 38 37 35 34 34 34 34 34 34 34 34 34 34 34 34 34 34 34 34 34 34 34 34 34 34 34 34 34 34 34 34 34 34 34 34 34 34 34 34 34 34 34 34 34 34 34 34 34 34 34 34 35 40 44 47 45 45 45 45 45 46 46 46 46 47 48 47 46 45 44 44 43 44 45 44 42 43 50 55 56 50 44 42 39 38 37 38 39 40 39 41 43 43 43 43 42 42 43 43 43 43 43 44 43 43 43 43 44 45 44 43 44 43 43 43 44 45 45 46 47 48 50 51 52 52 52 53 54 54 54 52 50 49 50 51 53 56 59 60 63 64 66 66 66 67 68 68 67 66 66 68 68 68 67 66 66 66 67 68 70 72 74 75 75 76 77 77 77 78 78 77 71 66 65 65 67 68 69 70 70 69 67 66 65 64 66 67 68 69 68 67 65 63 61 61 62 62 61 59 57 56 56 55 54 52 51 52 51 50 50 50 49 50 50 51 53 54 53 53 52 52 50 46 43 41 39 38 36 34 33 32 31 30 29 28 27 25 24 23 23 25 27 29 30 31 33 35 37 39 40 40 39 35 32 29 29 29 29 28 27 26 25 25 23 20 18 17 15 13 12 12 17 20 21 17 16 16 16 16 14 13 13 10 7 6 4 4 4 5 8 16 22 23 22 21 20 20 20 20 20 21 21 22 22 23 23 22 21 20 19 19 18 18 18 21 24 25 24 23 23 21 20 19 19 19 20 19 18 18 19 20 22 22 22 24 27 33 36 37 38 36 34 28 25 25 25 24 23 20 16 12 10 9 9 8 7 6 6 7 8 8 7 9 10 10 10 9 9 9 6 5 3 2 2 1 0 0 -1 -1 -2 -3 -3 -2 -2 -1 -1 -1 0 0 0 1 2 3 4 5 5 5 7 8 9 11 11 12 14 15 16 16 16 16 17 18 19 19 20 20 18 17 15 16 19 25 30 32 34 35 36 35 35 37 39 40 41 40 39 40 40 41 42 43 45 46 46 46 47 47 47 46 47 46 46 47 47 47 47 47 47 46 46 47 46 46 45 44 44 44 43 44 44 44 45 47 48 48 47 47 47 47 47 46 44 43 42 41 40 39 39 39 39 39 39 39 39 38 37 38 39 41 42 42 44 44 44 43 44 45 47 48 49 50 51 52 52 51 51 51 51 51 50 50 50 50 50 49 50 50 50 49 49 50 50 49 48 47 46 46 46 46 45 45 44 43 43 43 43 42 42 42 42 42 42 43 42 42 42 44 44 43 42 43 43 43 43 42 40 39 38 38 39 39 38 38 37 36 34 33 33 32 31 28 27 26 25 24 21 19 18 18 19 21 22 22 22 22 24 27 28 27 24 22 23 23 24 25 25 0 0 0 0 0 0 0 0 0 0 0 0 0 0 0 0 0 0 0 0 0 0 0 0 0 0 0 0 0 0 0 0 0 0 0 0 0 0 0 0 0 0 0 0 0 0 0 0 0 0 0 0 0 0 0 0 0 0 0 0 0 0 0 0 0 0 0 0 0 0 0 0 0 0 0 0 0 0 0 0 0 0 0 0 0 0 0 0 0 0 0 0 0 0 0 0 0 0 0 0 0 0 0 0 0 0 0 0 0 0 0 0 0 0 0 0 0 0 0 0 0 0 0 0 0 0 0 0 0 0 0 0 0 0 0 0 0 0 0 0 0 0 0 0 0 0 0 0 0 0 0 0 0 0 0 0 0 0 0 0 0 0 0 0 0 0 0
30 30 30 31 32 33 35 38 39 40 42 43 45 49 51 51 51 52 55 58 60 61 63 63 64 67 70 70 71 73 73 71 69 69 70 70 72 77 77 78 79 81 80 77 75 73 72 71 67 64 64 64 63 62 62 61 60 58 58 57 57 57 58 59 60 59 56 52 50 47 47 47 50 51 53 54 54 53 52 52 51 49 46 43 42 42 43 44 44 44 47 50 51 49 49 49 48 48 47 46 45 45 45 44 43 43 41 40 40 39 38 36 35 35 36 36 35 34 34 34 34 34 35 35 34 33 32 32 31 31 30 30 30 30 29 29 30 31 31 31 31 32 34 35 36 37 37 37 38 39 40 41 41 41 42 42 44 46 47 46 45 46 46 45 46 46 46 46 47 48 49 49 49 49 51 52 52 54 54 55 56 56 56 56 56 57 60 61 60 60 60 60 60 62 65 67 68 68 67 68 68 67 66 67 68 68 67 67 68 69 69 69 70 70 70 70 70 70 70 69 69 69 69 69 69 70 71 73 75 77 78 79 77 75 74 74 74 73 74 74 75 76 76 77 77 77 74 73 72 71 70 70 68 67 67 67 67 66 65 65 64 62 59 58 57 58 58 57 57 55 53 52 52 55 57 57 57 56 56 57 58 57 57 59 67 73 73 73 72 71 67 58 52 50 49 48 49 56 63 66 69 70 72 73 73 72 71 64 56 50 48 45 44 43 44 46 48 50 51 52 52 52 52 49 47 46 45 44 45 50 52 51 44 42 39 36 34 34 34 34 34 34 34 34 34 34 34 34 34 34 34 34 34 34 34 34 34 34 34 34 34 34 34 34 34 34 34 34 34 34 34 34 34 34 34 34 34 34 34 34 34 34 34 37 43 46 45 45 44 45 46 46 48 49 47 46 46 47 48 49 49 48 47 46 46 48 50 52 53 57 62 65 67 66 63 54 45 40 41 42 42 42 43 45 45 45 45 45 45 46 46 45 45 45 45 45 45 46 48 50 50 49 48 48 48 48 46 45 45 45 46 48 50 51 52 52 53 53 53 54 54 54 54 52 51 51 53 57 60 60 57 56 57 59 61 62 63 62 62 61 62 63 64 64 65 66 67 68 68 68 69 70 71 72 72 72 71 72 73 73 73 73 71 69 69 70 70 69 68 68 68 67 66 65 65 65 66 68 70 73 74 74 70 68 65 62 60 61 59 58 57 56 55 56 57 57 56 53 53 52 51 51 51 51 52 53 53 55 56 54 53 51 51 49 46 43 42 41 41 41 41 41 39 35 33 30 29 28 26 24 24 25 24 22 23 25 28 32 35 34 34 35 33 31 32 31 28 28 28 28 27 25 24 23 18 14 12 10 10 12 13 14 14 15 16 17 15 13 13 14 14 14 14 16 18 18 17 18 16 16 17 17 19 20 20 20 20 20 19 19 19 20 21 21 22 23 24 23 21 20 19 20 20 19 19 20 21 22 22 23 24 24 22 21 20 19 19 19 18 17 17 17 17 20 21 21 25 29 34 36 35 35 34 33 27 23 22 23 21 20 18 16 15 14 11 9 7 8 10 11 11 11 9 8 8 8 9 9 9 8 7 4 4 3 2 2 2 3 2 1 0 -2 -1 -1 0 0 -1 -2 -1 0 1 1 2 3 5 6 7 8 8 9 10 10 13 14 15 17 17 18 18 19 19 20 20 20 20 21 19 17 16 15 18 23 28 31 32 34 36 37 38 39 40 41 41 42 42 42 41 41 42 43 45 46 47 47 48 49 49 48 48 48 47 47 47 47 47 48 48 48 47 47 48 47 46 45 45 45 46 46 46 46 46 47 48 48 48 48 48 48 48 46 45 43 42 42 42 41 40 39 39 39 41 41 41 41 41 39 39 40 43 44 46 45 43 43 42 44 45 47 48 49 49 48 49 48 49 49 50 49 49 49 49 50 50 50 50 50 50 50 49 49 49 49 49 47 46 45 46 46 46 46 45 45 45 45 44 43 42 43 45 45 45 44 45 44 43 43 44 44 42 42 42 42 43 43 42 41 40 39 39 38 38 38 38 38 36 35 34 32 31 29 26 24 24 22 21 20 19 18 18 18 19 19 20 24 26 26 26 25 25 23 22 23 24 25 25 25 0 0 0 0 0 0 0 0 0 0 0 0 0 0 0 0 0 0 0 0 0 0 0 0 0 0 0 0 0 0 0 0 0 0 0 0 0 0 0 0 0 0 0 0 0 0 0 0 0 0 0 0 0 0 0 0 0 0 0 0 0 0 0 0 0 0 0 0 0 0 0 0 0 0 0 0 0 0 0 0 0 0 0 0 0 0 0 0 0 0 0 0 0 0 0 0 0 0 0 0 0 0 0 0 0 0 0 0 0 0 0 0 0 0 0 0 0 0 0 0 0 0 0 0 0 0 0 0 0 0 0 0 0 0 0 0 0 0 0 0 0 0 0 0 0 0 0 0 0 0 0 0 0 0 0 0 0 0 0 0 0 0 0 0 0 0 0
31 32 31 31 31 33 35 38 39 40 40 40 40 43 47 48 50 52 55 57 58 58 57 57 59 65 69 71 74 76 74 72 71 71 71 73 75 77 78 79 81 83 85 82 80 76 75 73 69 66 66 66 64 62 60 58 57 57 57 58 58 57 57 57 57 55 51 48 46 42 40 43 49 52 56 57 55 52 50 49 50 49 46 43 42 42 43 44 45 45 45 45 46 44 43 44 43 43 44 45 46 46 45 42 41 40 38 36 36 37 36 36 35 34 34 34 33 33 32 32 32 32 33 33 32 32 33 32 30 29 29 29 30 30 29 28 29 30 31 30 31 32 34 34 35 36 37 38 39 39 40 39 38 38 39 40 43 45 47 47 45 44 43 45 46 46 46 47 47 47 48 48 48 49 50 51 53 54 54 55 57 59 60 60 60 59 59 59 58 58 58 59 60 62 64 65 65 65 66 65 64 64 64 64 65 65 65 65 66 66 68 69 69 69 69 67 66 66 65 65 65 65 67 71 71 70 70 72 75 76 77 77 75 74 74 73 73 73 74 75 76 76 76 77 78 79 78 76 76 74 72 71 71 70 70 69 68 66 65 65 63 61 60 59 59 60 59 58 57 55 54 54 54 57 59 60 60 59 58 59 59 58 59 62 67 70 72 72 72 70 65 58 54 52 52 52 51 55 63 66 69 70 72 74 76 77 73 65 56 52 51 48 45 44 46 52 54 53 54 55 55 56 56 55 51 46 44 43 43 46 49 50 50 50 47 44 38 34 34 34 34 34 34 34 34 34 34 34 34 34 34 34 34 34 34 34 34 34 34 34 34 34 34 34 34 34 34 34 34 34 34 34 34 34 34 34 34 34 34 34 34 34 38 43 45 44 43 44 45 45 46 46 47 48 48 48 48 48 49 49 50 49 48 48 52 58 63 67 68 69 71 73 71 67 65 58 51 47 46 45 44 44 46 49 51 51 51 49 47 48 49 49 49 48 47 48 48 48 48 49 50 51 52 53 52 50 47 46 47 47 48 49 50 51 52 51 51 51 51 51 51 52 53 52 51 52 53 55 57 56 55 54 55 57 60 61 59 58 59 61 62 62 63 63 65 68 70 70 69 68 68 71 73 73 73 73 73 74 74 75 76 78 78 75 74 74 74 73 72 71 70 69 68 65 65 67 68 71 72 74 74 71 68 66 64 63 62 62 59 59 59 59 59 59 59 58 59 58 56 55 54 53 51 50 49 50 50 50 51 52 52 51 51 51 49 47 45 44 44 43 42 41 40 39 37 33 30 29 28 27 27 26 24 21 20 22 25 27 27 28 28 27 26 26 27 28 27 27 27 28 26 23 21 16 12 10 11 12 13 14 15 15 14 13 12 13 14 15 16 15 15 15 15 15 15 14 15 17 17 18 19 19 20 21 22 23 22 22 21 20 20 21 22 22 23 23 22 22 22 22 21 21 21 21 21 21 21 22 21 22 23 23 23 21 21 23 23 23 26 27 26 24 22 20 20 24 31 32 34 35 35 34 32 31 29 26 23 22 21 20 19 18 18 16 13 11 10 10 11 12 12 10 9 8 7 6 5 5 4 4 4 4 4 3 3 5 6 4 2 0 0 0 1 1 1 0 -1 0 1 1 1 1 2 5 7 7 7 9 11 13 15 17 20 20 19 20 20 21 20 20 21 21 21 21 21 21 19 17 17 18 22 27 31 32 33 34 36 38 39 39 40 40 40 41 42 43 43 43 44 45 46 46 48 49 49 48 48 48 48 48 48 47 47 47 47 48 48 48 48 48 48 48 48 48 48 48 48 48 49 49 49 48 48 48 48 48 47 46 47 47 46 44 42 41 41 42 42 41 41 42 44 45 45 44 44 44 43 43 44 45 47 47 45 45 44 44 46 47 48 48 48 47 48 48 47 47 47 48 48 48 49 51 51 50 50 50 50 50 50 49 49 48 47 45 44 43 43 43 43 44 44 44 44 44 44 44 44 45 45 45 45 44 45 46 45 44 43 42 43 44 43 43 42 42 42 42 41 41 40 39 38 38 37 36 35 35 34 32 30 28 25 23 22 21 21 19 18 18 19 18 18 20 23 25 25 25 23 22 21 21 21 22 23 23 24 25 0 0 0 0 0 0 0 0 0 0 0 0 0 0 0 0 0 0 0 0 0 0 0 0 0 0 0 0 0 0 0 0 0 0 0 0 0 0 0 0 0 0 0 0 0 0 0 0 0 0 0 0 0 0 0 0 0 0 0 0 0 0 0 0 0 0 0 0 0 0 0 0 0 0 0 0 0 0 0 0 0 0 0 0 0 0 0 0 0 0 0 0 0 0 0 0 0 0 0 0 0 0 0 0 0 0 0 0 0 0 0 0 0 0 0 0 0 0 0 0 0 0 0 0 0 0 0 0 0 0 0 0 0 0 0 0 0 0 0 0 0 0 0 0 0 0 0 0 0 0 0 0 0 0 0 0 0 0 0 0 0 0 0 0 0 0 0
32 32 31 31 31 32 35 37 37 38 39 41 45 47 49 49 51 52 52 53 54 53 52 52 56 61 65 67 71 73 74 73 73 74 75 76 77 79 79 79 79 80 82 82 81 82 82 83 80 76 75 73 69 65 61 56 54 55 56 56 56 56 56 55 55 53 49 44 42 39 41 45 49 51 55 56 55 51 49 48 48 49 48 45 42 42 42 42 43 44 44 44 43 42 42 42 42 42 43 44 45 43 41 39 38 37 37 36 36 36 36 37 35 34 33 32 32 31 30 30 30 30 31 30 30 30 30 30 29 29 29 29 30 30 30 30 29 30 32 32 31 33 35 35 36 38 39 39 39 40 40 40 38 37 38 39 41 43 46 48 45 43 42 42 43 44 44 45 45 45 45 47 48 50 50 50 51 52 52 53 55 60 65 64 62 60 60 60 59 58 58 58 60 61 62 63 63 62 61 60 59 59 60 61 62 63 62 62 62 65 67 67 67 66 65 65 65 64 64 63 62 62 66 69 69 68 68 70 71 72 72 72 73 72 72 72 72 73 74 74 75 77 78 79 80 80 80 79 79 77 75 73 72 72 72 70 69 67 64 63 61 59 58 58 59 60 59 59 60 60 63 66 67 66 66 67 67 65 64 63 63 62 63 66 69 70 69 68 67 64 58 54 53 53 53 52 53 58 63 64 65 65 66 68 70 71 67 59 52 49 49 48 47 47 47 49 51 54 57 63 65 62 60 56 50 46 44 43 44 45 47 47 47 47 48 47 46 42 39 37 34 34 34 34 34 34 34 34 34 34 34 34 34 34 34 34 34 34 34 34 34 34 34 34 34 34 34 34 34 34 34 34 34 34 34 34 34 34 34 34 34 40 46 46 46 45 45 46 47 46 46 46 47 48 48 47 46 46 47 48 49 50 52 60 70 76 78 79 79 80 79 76 72 67 65 59 54 52 51 51 52 54 58 62 63 63 61 56 52 50 50 51 50 49 48 48 48 48 47 47 48 49 50 51 49 47 45 45 46 47 48 48 48 48 48 50 51 51 51 51 51 51 51 52 53 52 51 51 52 52 53 54 55 57 58 58 58 58 58 59 61 62 63 64 66 70 72 70 69 69 71 72 73 72 72 72 74 75 75 77 78 81 82 81 79 77 77 76 76 76 75 75 74 73 73 72 72 73 73 74 73 71 69 68 68 68 67 66 66 66 64 63 63 63 62 61 62 59 58 57 55 55 55 54 53 52 53 53 52 51 50 50 50 48 45 43 44 45 46 44 42 41 40 38 37 35 33 30 28 27 26 25 24 22 19 19 20 21 22 23 23 23 24 26 27 28 28 28 28 25 19 14 13 13 12 13 14 15 15 16 16 16 15 15 16 17 18 20 19 18 18 16 14 13 14 15 15 17 19 20 22 23 24 24 25 25 24 23 23 23 23 22 22 22 22 23 22 22 22 21 20 20 21 21 21 21 20 20 21 22 23 22 22 24 27 27 28 31 33 31 30 28 26 24 28 33 35 36 36 34 32 31 31 31 31 29 26 22 20 20 20 18 15 13 11 10 11 11 11 11 11 11 9 8 7 6 5 4 2 2 4 4 4 4 4 3 4 4 2 0 1 1 1 1 2 1 0 0 2 3 5 7 8 11 12 12 10 9 11 12 14 15 18 20 20 21 21 20 20 20 21 22 23 23 23 22 21 19 19 23 28 31 33 34 35 36 38 39 40 40 40 40 40 40 41 42 42 43 44 46 47 47 47 48 48 48 48 49 50 50 50 49 49 48 48 48 49 49 49 49 49 49 48 49 49 49 50 52 53 53 53 52 51 50 50 50 51 49 48 48 48 46 43 42 43 44 44 42 43 44 44 45 45 44 44 44 45 45 45 47 49 49 48 48 47 47 48 48 47 48 48 46 46 47 47 47 47 48 49 49 50 50 50 50 51 52 52 52 52 52 50 48 46 44 43 43 43 42 42 42 43 44 45 46 46 46 46 46 46 46 46 45 45 44 44 43 42 42 43 43 42 42 43 42 42 41 41 40 40 39 38 36 35 34 33 33 31 29 28 26 23 21 20 21 21 20 19 18 19 20 20 21 22 21 19 19 19 19 20 21 22 22 22 21 23 24 0 0 0 0 0 0 0 0 0 0 0 0 0 0 0 0 0 0 0 0 0 0 0 0 0 0 0 0 0 0 0 0 0 0 0 0 0 0 0 0 0 0 0 0 0 0 0 0 0 0 0 0 0 0 0 0 0 0 0 0 0 0 0 0 0 0 0 0 0 0 0 0 0 0 0 0 0 0 0 0 0 0 0 0 0 0 0 0 0 0 0 0 0 0 0 0 0 0 0 0 0 0 0 0 0 0 0 0 0 0 0 0 0 0 0 0 0 0 0 0 0 0 0 0 0 0 0 0 0 0 0 0 0 0 0 0 0 0 0 0 0 0 0 0 0 0 0 0 0 0 0 0 0 0 0 0 0 0 0 0 0 0 0 0 0 0 0
