ncols        1026
nrows        32
xllcorner    10.758472224000
yllcorner    54.058194445000
dx           0.000540394196
dy           0.000520681709
NODATA_value  -9
-9 -9 -9 -9 -9 -9 -9 -9 -9 -9 -9 -9 -9 -9 -9 -9 -9 -9 -9 -9 -9 -9 -9 -9 -9 -9 -9 -9 -9 -9 -9 -9 -9 -9 -9 -9 -9 -9 -9 -9 -9 -9 -9 -9 -9 -9 -9 -9 -9 -9 -9 -9 -9 -9 -9 -9 -9 0 0 0 0 0 0 0 0 0 1 1 1 0 -1 0 0 1 2 5 5 4 3 2 1 1 1 0 0 1 1 2 3 2 2 3 3 3 3 2 1 3 6 8 8 6 4 3 3 2 1 2 3 2 0 0 1 2 2 4 5 6 7 8 9 9 8 8 9 8 9 10 11 12 12 12 11 10 10 10 11 11 10 10 10 9 8 7 6 7 8 8 8 8 7 9 10 11 10 10 10 10 11 12 11 12 13 11 9 7 7 9 11 12 12 15 17 15 14 12 9 8 7 6 6 6 5 4 5 4 2 1 1 1 3 5 7 6 5 6 6 7 8 8 9 9 8 9 10 11 12 12 13 13 14 14 13 13 14 16 17 16 15 15 15 14 14 14 14 15 15 15 16 17 16 16 17 17 17 17 16 15 15 16 16 16 16 17 17 17 17 17 17 18 19 19 18 17 18 19 21 21 20 19 18 18 17 16 16 16 16 16 16 16 16 18 19 19 20 20 18 16 15 15 15 16 18 21 23 23 24 26 26 24 24 25 24 23 22 21 21 22 21 20 20 20 20 19 18 18 18 18 18 18 19 18 17 17 18 19 18 18 17 15 13 11 11 11 12 14 15 15 15 15 14 12 11 11 11 11 11 11 10 11 11 10 9 8 7 6 5 6 6 7 7 7 8 7 7 9 11 14 18 19 18 18 18 16 15 15 15 15 15 14 14 15 16 17 17 17 17 17 16 16 15 14 12 10 10 12 15 15 14 13 11 10 10 11 12 13 13 12 10 10 10 10 11 12 13 12 12 12 12 12 12 12 13 14 14 14 13 13 13 14 14 13 12 12 11 10 10 10 10 9 9 10 13 16 14 11 11 11 12 12 11 10 9 9 9 9 9 9 10 11 11 12 13 13 13 14 15 17 18 19 20 21 22 22 19 19 18 18 19 20 18 16 15 15 15 16 15 15 16 16 14 13 10 8 7 6 8 9 10 9 9 7 6 5 5 6 5 5 7 8 8 9 11 12 12 12 11 10 9 8 9 10 11 11 10 10 11 9 8 8 9 8 9 9 8 7 7 8 7 6 5 5 7 9 11 13 13 14 14 14 13 12 11 10 9 9 9 9 9 8 7 8 8 6 5 4 5 4 4 3 2 4 6 5 5 4 5 6 7 7 8 7 6 5 5 5 4 5 6 5 4 3 4 3 2 1 0 -9 -9 -9 -9 -9 -9 -9 -9 -9 -9 -9 -9 -9 -9 -9 -9 -9 -9 -9 -9 -9 -9 -9 -9 -9 -9 -9 -9 -9 -9 -9 -9 -9 -9 -9 -9 -9 -9 -9 -9 -9 -9 -9 -9 -9 -9 -9 -9 -9 -9 -9 -9 -9 -9 -9 -9 -9 -9 -9 -9 -9 -9 -9 -9 -9 -9 -9 -9 -9 -9 -9 -9 -9 -9 -9 -9 -9 -9 -9 -9 -9 -9 -9 -9 -9 -9 -9 -9 -9 -9 -9 -9 -9 -9 -9 -9 -9 -9 -9 -9 -9 -9 -9 -9 -9 -9 -9 -9 -9 -9 -9 -9 -9 -9 -9 -9 -9 -9 -9 -9 -9 -9 -9 -9 -9 -9 -9 -9 -9 -9 -9 -9 -9 -9 -9 -9 -9 -9 -9 -9 -9 -9 -9 -9 -9 -9 -9 -9 -9 -9 -9 -9 -9 -9 -9 -9 -9 -9 -9 -9 -9 -9 -9 -9 -9 -9 -9 -9 -9 -9 -9 -9 -9 -9 -9 -9 -9 -9 -9 -9 -9 -9 -9 -9 -9 -9 -9 -9 -9 -9 -9 -9 -9 -9 -9 -9 -9 -9 -9 -9 -9 -9 -9 -9 -9 -9 -9 -9 -9 -9 -9 -9 -9 -9 -9 -9 -9 -9 -9 -9 -9 -9 -9 -9 -9 -9 -9 -9 -9 -9 -9 -9 -9 -9 -9 -9 -9 -9 -9 -9 -9 -9 -9 -9 -9 -9 -9 -9 -9 -9 -9 -9 -9 -9 -9 -9 -9 -9 -9 -9 -9 -9 -9 -9 -9 -9 -9 -9 -9 -9 -9 -9 -9 -9 -9 -9 -9 -9 -9 -9 -9 -9 -9 -9 -9 -9 -9 -9 -9 -9 -9 -9 -9 -9 -9 -9 -9 -9 -9 -9 -9 -9 -9 -9 -9 -9 -9 -9 -9 -9 -9 -9 -9 -9 -9 -9 -9 -9 -9 -9 -9 -9 -9 -9 -9 -9 -9 -9 -9 -9 -9 -9 -9 -9 -9 -9 -9 -9 -9 -9 -9 -9 -9 -9 -9 -9 -9 -9 -9 -9 -9 -9 -9 -9 -9 -9 -9 -9 -9 -9 -9 -9 -9 -9 -9 -9 -9 -9 -9 -9 -9 -9 -9 -9 -9 -9 -9 -9 -9 -9 -9 -9 -9 -9 -9 -9 -9 -9 -9 -9 -9 -9 -9 -9 -9 -9 -9 -9 -9 -9 -9 -9 -9 -9 -9 -9 -9 -9 -9 -9 -9 -9 -9 -9 -9 -9 -9 -9 -9 -9 -9 -9 -9 -9 -9 -9 -9 -9 -9 -9 -9 -9 -9 -9 -9 -9 -9 -9 -9
-9 -9 -9 -9 -9 -9 -9 -9 -9 -9 -9 -9 -9 -9 -9 -9 -9 -9 -9 -9 -9 -9 -9 -9 -9 -9 -9 -9 -9 -9 -9 -9 -9 -9 -9 -9 -9 -9 -9 -9 -9 -9 -9 -9 -9 -9 -9 -9 -9 -9 -9 -9 -9 -9 0 3 4 2 0 -1 -1 0 1 0 0 0 1 0 0 0 0 0 1 2 2 3 2 1 2 2 2 2 3 3 3 2 2 1 1 2 2 3 6 7 6 4 2 3 4 3 2 3 3 3 3 3 2 2 3 2 2 2 3 3 3 4 5 5 6 7 7 8 9 9 9 9 10 11 11 11 11 11 11 11 10 11 12 11 10 9 9 8 8 8 8 8 8 9 9 8 7 8 8 8 8 8 8 8 9 10 10 11 11 9 8 7 8 10 14 15 16 16 16 16 16 14 11 9 9 8 9 10 9 9 9 8 6 4 3 2 3 4 6 7 6 5 6 6 7 6 7 8 9 9 10 11 12 13 13 13 14 15 15 15 17 18 17 16 15 15 14 14 14 14 14 14 15 15 15 15 14 15 16 15 15 16 17 16 16 16 15 15 15 16 16 16 15 14 15 15 16 18 18 17 18 18 18 18 17 16 15 14 15 15 16 17 16 15 16 15 16 17 17 16 16 17 17 16 15 16 18 19 22 23 23 24 24 26 26 25 25 26 25 23 23 22 22 22 21 21 22 21 20 19 18 17 18 19 18 18 18 17 16 17 18 18 18 18 17 13 11 10 11 12 12 12 14 15 15 16 16 15 15 15 14 12 11 14 17 19 21 21 15 8 5 4 5 6 6 6 6 6 6 6 6 7 10 13 17 20 19 21 21 17 13 12 13 13 13 14 14 14 15 16 16 15 16 14 13 12 12 11 11 14 16 18 19 19 16 14 10 9 10 10 10 12 13 13 12 12 12 12 13 14 13 13 13 13 13 12 13 12 13 13 14 13 13 14 13 12 13 11 10 11 10 9 9 9 10 9 9 10 13 16 16 15 13 11 9 9 9 10 10 10 10 9 10 10 9 11 13 14 15 16 15 15 17 20 22 23 24 24 23 24 23 21 20 20 20 20 19 19 19 20 20 20 21 21 20 20 20 19 16 14 11 10 9 9 9 9 9 8 7 7 8 8 7 6 5 4 4 5 6 7 8 8 8 8 8 9 9 9 9 10 11 11 11 10 9 9 9 9 11 13 11 8 6 6 7 6 6 7 9 11 12 12 12 12 12 13 13 12 12 11 10 9 9 8 7 6 7 8 8 6 5 5 6 7 6 5 5 6 8 8 7 5 5 5 6 5 5 5 5 5 5 5 4 3 3 2 3 3 4 4 4 3 0 -9 -9 -9 -9 -9 -9 -9 -9 -9 -9 -9 -9 -9 -9 -9 -9 -9 -9 -9 -9 -9 -9 -9 -9 -9 -9 -9 -9 -9 -9 -9 -9 -9 -9 -9 -9 -9 -9 -9 -9 -9 -9 -9 -9 -9 -9 -9 -9 -9 -9 -9 -9 -9 -9 -9 -9 -9 -9 -9 -9 -9 -9 -9 -9 -9 -9 -9 -9 -9 -9 -9 -9 -9 -9 -9 -9 -9 -9 -9 -9 -9 -9 -9 -9 -9 -9 -9 -9 -9 -9 -9 -9 -9 -9 -9 -9 -9 -9 -9 -9 -9 -9 -9 -9 -9 -9 -9 -9 -9 -9 -9 -9 -9 -9 -9 -9 -9 -9 -9 -9 -9 -9 -9 -9 -9 -9 -9 -9 -9 -9 -9 -9 -9 -9 -9 -9 -9 -9 -9 -9 -9 -9 -9 -9 -9 -9 -9 -9 -9 -9 -9 -9 -9 -9 -9 -9 -9 -9 -9 -9 -9 -9 -9 -9 -9 -9 -9 -9 -9 -9 -9 -9 -9 -9 -9 -9 -9 -9 -9 -9 -9 -9 -9 -9 -9 -9 -9 -9 -9 -9 -9 -9 -9 -9 -9 -9 -9 -9 -9 -9 -9 -9 -9 -9 -9 -9 -9 -9 -9 -9 -9 -9 -9 -9 -9 -9 -9 -9 -9 -9 -9 -9 -9 -9 -9 -9 -9 -9 -9 -9 -9 -9 -9 -9 -9 -9 -9 -9 -9 -9 -9 -9 -9 -9 -9 -9 -9 -9 -9 -9 -9 -9 -9 -9 -9 -9 -9 -9 -9 -9 -9 -9 -9 -9 -9 -9 -9 -9 -9 -9 -9 -9 -9 -9 -9 -9 -9 -9 -9 -9 -9 -9 -9 -9 -9 -9 -9 -9 -9 -9 -9 -9 -9 -9 -9 -9 -9 -9 -9 -9 -9 -9 -9 -9 -9 -9 -9 -9 -9 -9 -9 -9 -9 -9 -9 -9 -9 -9 -9 -9 -9 -9 -9 -9 -9 -9 -9 -9 -9 -9 -9 -9 -9 -9 -9 -9 -9 -9 -9 -9 -9 -9 -9 -9 -9 -9 -9 -9 -9 -9 -9 -9 -9 -9 -9 -9 -9 -9 -9 -9 -9 -9 -9 -9 -9 -9 -9 -9 -9 -9 -9 -9 -9 -9 -9 -9 -9 -9 -9 -9 -9 -9 -9 -9 -9 -9 -9 -9 -9 -9 -9 -9 -9 -9 -9 -9 -9 -9 -9 -9 -9 -9 -9 -9 -9 -9 -9 -9 -9 -9 -9 -9 -9 -9 -9 -9 -9 -9 -9 -9 -9 -9 -9 -9 -9 -9 -9 -9 -9 -9 -9 -9 -9 -9 -9 -9 -9 -9 -9
-9 -9 -9 -9 -9 -9 -9 -9 -9 -9 -9 -9 -9 -9 -9 -9 -9 -9 -9 -9 -9 -9 -9 -9 -9 -9 -9 -9 -9 -9 -9 -9 -9 -9 -9 -9 -9 -9 -9 -9 -9 -9 -9 -9 -9 -9 -9 -9 -9 -9 -9 1 2 3 2 1 0 1 -1 -2 -1 -1 -1 0 0 1 0 0 -1 0 1 3 4 4 4 3 2 1 1 1 2 2 1 1 0 0 0 0 0 0 2 5 6 6 6 5 5 4 3 2 1 0 1 3 3 3 2 0 0 2 3 3 3 4 4 4 5 7 8 9 8 8 9 9 8 9 10 11 10 10 10 10 10 10 10 11 12 11 10 10 10 10 9 8 9 9 9 10 10 10 9 10 10 9 9 8 7 7 8 8 8 8 8 8 8 9 11 12 12 13 14 15 16 16 14 13 11 9 8 7 8 10 9 10 12 12 11 9 8 8 7 6 6 6 5 4 4 5 6 6 7 8 9 9 10 11 11 12 12 13 14 15 15 15 16 19 19 17 15 15 14 14 14 15 14 14 15 15 15 15 15 14 15 16 16 15 15 16 16 16 15 15 15 14 14 13 12 12 12 13 15 17 17 17 17 16 14 12 12 12 12 12 13 14 15 15 14 13 12 13 13 13 13 13 14 15 14 14 14 15 18 20 22 23 25 26 25 26 26 26 25 25 23 22 21 21 21 21 22 21 21 21 21 21 20 19 19 19 18 18 18 18 18 18 19 19 18 17 16 14 13 11 11 12 13 14 15 17 17 18 17 15 13 13 12 11 12 16 19 18 14 12 10 7 6 5 5 6 6 5 4 5 6 5 5 6 7 9 14 19 21 22 24 20 15 13 13 13 13 13 13 13 15 16 15 14 14 12 10 9 9 9 10 13 16 18 17 17 15 13 10 9 10 10 10 10 12 14 13 12 12 12 12 12 13 14 13 13 12 11 11 11 11 11 12 11 11 12 13 13 13 12 11 10 8 7 7 8 9 9 8 8 10 13 17 19 16 13 10 9 9 8 9 9 9 8 9 9 10 12 13 14 16 17 19 20 22 24 25 25 26 25 24 24 24 22 22 23 24 22 21 21 21 22 22 22 22 22 22 20 20 19 18 16 14 13 12 11 11 11 11 10 9 8 8 8 8 7 6 5 5 4 4 5 5 5 6 7 7 8 8 9 9 9 8 7 8 8 8 9 10 11 12 13 12 9 7 8 8 7 7 7 9 9 9 10 11 12 12 13 13 12 12 11 10 9 8 7 7 8 8 8 7 7 6 7 8 8 7 6 4 3 3 3 4 4 4 4 4 4 4 5 5 4 5 5 5 4 3 3 3 3 4 5 6 6 0 -9 -9 -9 -9 -9 -9 -9 -9 -9 -9 -9 -9 -9 -9 -9 -9 -9 -9 -9 -9 -9 -9 -9 -9 -9 -9 -9 -9 -9 -9 -9 -9 -9 -9 -9 -9 -9 -9 -9 -9 -9 -9 -9 -9 -9 -9 -9 -9 -9 -9 -9 -9 -9 -9 -9 -9 -9 -9 -9 -9 -9 -9 -9 -9 -9 -9 -9 -9 -9 -9 -9 -9 -9 -9 -9 -9 -9 -9 -9 -9 -9 -9 -9 -9 -9 -9 -9 -9 -9 -9 -9 -9 -9 -9 -9 -9 -9 -9 -9 -9 -9 -9 -9 -9 -9 -9 -9 -9 -9 -9 -9 -9 -9 -9 -9 -9 -9 -9 -9 -9 -9 -9 -9 -9 -9 -9 -9 -9 -9 -9 -9 -9 -9 -9 -9 -9 -9 -9 -9 -9 -9 -9 -9 -9 -9 -9 -9 -9 -9 -9 -9 -9 -9 -9 -9 -9 -9 -9 -9 -9 -9 -9 -9 -9 -9 -9 -9 -9 -9 -9 -9 -9 -9 -9 -9 -9 -9 -9 -9 -9 -9 -9 -9 -9 -9 -9 -9 -9 -9 -9 -9 -9 -9 -9 -9 -9 -9 -9 -9 -9 -9 -9 -9 -9 -9 -9 -9 -9 -9 -9 -9 -9 -9 -9 -9 -9 -9 -9 -9 -9 -9 -9 -9 -9 -9 -9 -9 -9 -9 -9 -9 -9 -9 -9 -9 -9 -9 -9 -9 -9 -9 -9 -9 -9 -9 -9 -9 -9 -9 -9 -9 -9 -9 -9 -9 -9 -9 -9 -9 -9 -9 -9 -9 -9 -9 -9 -9 -9 -9 -9 -9 -9 -9 -9 -9 -9 -9 -9 -9 -9 -9 -9 -9 -9 -9 -9 -9 -9 -9 -9 -9 -9 -9 -9 -9 -9 -9 -9 -9 -9 -9 -9 -9 -9 -9 -9 -9 -9 -9 -9 -9 -9 -9 -9 -9 -9 -9 -9 -9 -9 -9 -9 -9 -9 -9 -9 -9 -9 -9 -9 -9 -9 -9 -9 -9 -9 -9 -9 -9 -9 -9 -9 -9 -9 -9 -9 -9 -9 -9 -9 -9 -9 -9 -9 -9 -9 -9 -9 -9 -9 -9 -9 -9 -9 -9 -9 -9 -9 -9 -9 -9 -9 -9 -9 -9 -9 -9 -9 -9 -9 -9 -9 -9 -9 -9 -9 -9 -9 -9 -9 -9 -9 -9 -9 -9 -9 -9 -9 -9 -9 -9 -9 -9 -9 -9 -9 -9 -9 -9 -9 -9 -9 -9 -9 -9 -9 -9 -9 -9 -9 -9 -9 -9 -9 -9 -9 -9 -9 -9 -9 -9 -9 -9 -9 -9 -9 -9 -9 -9
-9 -9 -9 -9 -9 -9 -9 -9 -9 -9 -9 -9 -9 -9 -9 -9 -9 -9 -9 -9 -9 -9 -9 -9 -9 -9 -9 -9 -9 -9 -9 -9 -9 -9 -9 -9 -9 -9 -9 -9 -9 -9 -9 -9 -9 -9 0 1 1 1 2 2 2 1 0 -1 -2 -1 -1 -1 -1 0 2 2 1 1 2 2 1 1 2 3 4 4 4 3 2 2 2 1 2 2 2 1 2 2 1 2 2 1 2 5 6 6 6 6 7 8 6 5 3 3 3 3 1 1 0 0 1 2 3 3 4 5 5 6 8 10 9 8 8 8 9 9 9 10 10 9 9 10 10 10 10 10 10 11 11 11 11 11 10 10 9 8 9 9 8 9 9 9 8 8 9 9 9 9 8 7 7 8 8 7 7 7 7 8 11 13 13 11 12 14 16 15 14 12 10 8 7 9 11 11 11 10 11 11 11 10 10 11 12 12 10 9 8 6 4 4 6 7 8 7 8 9 10 11 12 12 12 13 14 15 15 15 16 19 21 20 17 16 15 13 13 13 13 13 13 14 14 14 14 14 15 16 16 16 17 17 16 15 14 15 14 13 13 13 13 13 12 13 13 15 16 14 13 13 12 10 8 9 11 12 13 13 14 15 14 13 12 12 12 12 11 10 10 11 11 13 14 14 16 18 20 20 23 24 25 26 25 24 23 24 24 22 21 21 21 21 22 22 21 21 20 20 20 19 18 17 17 18 19 19 18 18 17 17 17 15 13 13 14 13 12 14 16 16 17 18 18 17 15 15 12 11 10 11 14 18 19 14 9 7 6 6 6 5 5 4 4 4 5 5 5 6 7 8 9 11 11 15 21 24 24 23 22 20 16 14 14 15 15 16 17 18 16 14 13 12 11 10 11 10 10 13 16 17 14 11 10 9 9 10 9 9 10 11 11 11 11 11 10 10 10 11 12 12 11 11 11 11 11 11 12 12 12 13 13 13 12 11 11 12 10 8 7 7 7 8 8 7 7 8 9 9 10 13 14 12 9 9 8 8 8 8 8 9 9 9 10 12 14 15 18 21 23 24 26 27 28 28 26 25 24 24 25 24 23 23 23 23 22 23 23 22 22 21 21 21 20 19 18 18 17 16 15 15 14 13 12 12 10 7 6 6 7 7 6 6 6 5 5 5 5 4 4 4 6 8 9 8 8 8 8 8 7 7 8 7 8 8 8 8 7 9 12 12 11 10 9 8 8 7 7 7 7 7 7 9 10 11 12 12 13 12 11 10 9 8 9 8 7 7 6 6 7 9 10 9 8 7 5 4 3 6 7 7 5 4 4 5 5 5 5 5 5 6 6 5 5 4 4 4 5 6 6 5 0 0 -9 -9 -9 -9 -9 -9 -9 -9 -9 -9 -9 -9 -9 -9 -9 -9 -9 -9 -9 -9 -9 -9 -9 -9 -9 -9 -9 -9 -9 -9 -9 -9 -9 -9 -9 -9 -9 -9 -9 -9 -9 -9 -9 -9 -9 -9 -9 -9 -9 -9 -9 -9 -9 -9 -9 -9 -9 -9 -9 -9 -9 -9 -9 -9 -9 -9 -9 -9 -9 -9 -9 -9 -9 -9 -9 -9 -9 -9 -9 -9 -9 -9 -9 -9 -9 -9 -9 -9 -9 -9 -9 -9 -9 -9 -9 -9 -9 -9 -9 -9 -9 -9 -9 -9 -9 -9 -9 -9 -9 -9 -9 -9 -9 -9 -9 -9 -9 -9 -9 -9 -9 -9 -9 -9 -9 -9 -9 -9 -9 -9 -9 -9 -9 -9 -9 -9 -9 -9 -9 -9 -9 -9 -9 -9 -9 -9 -9 -9 -9 -9 -9 -9 -9 -9 -9 -9 -9 -9 -9 -9 -9 -9 -9 -9 -9 -9 -9 -9 -9 -9 -9 -9 -9 -9 -9 -9 -9 -9 -9 -9 -9 -9 -9 -9 -9 -9 -9 -9 -9 -9 -9 -9 -9 -9 -9 -9 -9 -9 -9 -9 -9 -9 -9 -9 -9 -9 -9 -9 -9 -9 -9 -9 -9 -9 -9 -9 -9 -9 -9 -9 -9 -9 -9 -9 -9 -9 -9 -9 -9 -9 -9 -9 -9 -9 -9 -9 -9 -9 -9 -9 -9 -9 -9 -9 -9 -9 -9 -9 -9 -9 -9 -9 -9 -9 -9 -9 -9 -9 -9 -9 -9 -9 -9 -9 -9 -9 -9 -9 -9 -9 -9 -9 -9 -9 -9 -9 -9 -9 -9 -9 -9 -9 -9 -9 -9 -9 -9 -9 -9 -9 -9 -9 -9 -9 -9 -9 -9 -9 -9 -9 -9 -9 -9 -9 -9 -9 -9 -9 -9 -9 -9 -9 -9 -9 -9 -9 -9 -9 -9 -9 -9 -9 -9 -9 -9 -9 -9 -9 -9 -9 -9 -9 -9 -9 -9 -9 -9 -9 -9 -9 -9 -9 -9 -9 -9 -9 -9 -9 -9 -9 -9 -9 -9 -9 -9 -9 -9 -9 -9 -9 -9 -9 -9 -9 -9 -9 -9 -9 -9 -9 -9 -9 -9 -9 -9 -9 -9 -9 -9 -9 -9 -9 -9 -9 -9 -9 -9 -9 -9 -9 -9 -9 -9 -9 -9 -9 -9 -9 -9 -9 -9 -9 -9 -9 -9 -9 -9 -9 -9 -9 -9 -9 -9 -9 -9 -9 -9 -9 -9 -9 -9 -9 -9 -9 -9 -9 -9 -9 -9 -9 -9 -9 -9 -9 -9 -9 -9 -9
-9 -9 -9 -9 -9 -9 -9 -9 -9 -9 -9 -9 -9 -9 -9 -9 -9 -9 -9 -9 -9 -9 -9 -9 -9 -9 -9 -9 -9 -9 -9 -9 -9 -9 -9 -9 -9 -9 -9 -9 0 1 1 1 1 0 0 1 1 1 2 1 1 1 1 0 -1 -1 0 -1 -1 1 2 2 2 2 2 1 2 2 2 2 3 4 4 5 6 5 3 2 1 2 1 1 2 2 2 1 -1 -2 0 2 3 2 3 3 4 6 5 4 3 1 0 0 0 0 1 3 4 4 4 4 5 6 6 7 8 8 8 7 8 8 8 9 9 9 9 9 10 10 10 10 10 10 10 10 11 11 11 11 11 11 10 9 9 10 9 9 9 8 9 10 9 8 8 8 8 8 9 9 9 9 9 8 8 7 9 10 12 13 12 12 11 10 8 7 7 8 9 9 10 10 9 9 10 10 10 10 9 10 11 12 12 12 11 9 7 5 4 5 5 6 7 7 8 9 10 11 11 11 12 14 15 14 16 18 20 19 17 15 14 12 12 12 13 13 14 14 13 13 13 14 15 15 15 14 14 15 15 14 14 15 14 13 12 13 14 14 13 14 14 14 14 14 12 10 9 10 10 10 10 11 12 13 13 14 14 13 12 11 11 11 11 11 11 11 12 13 13 14 14 16 17 18 19 20 22 22 21 21 21 22 23 23 21 21 21 22 22 21 20 20 19 19 20 20 19 20 21 21 20 20 19 18 18 18 18 17 15 14 14 15 16 17 18 18 17 17 18 17 17 16 14 13 12 11 13 15 14 10 7 6 6 6 6 5 5 6 6 5 5 5 5 6 7 10 12 11 12 14 18 21 23 23 22 20 20 22 20 16 16 15 16 15 15 14 13 13 12 11 10 9 10 12 14 15 13 11 11 10 9 8 8 9 9 10 9 8 9 10 10 10 11 12 11 11 10 10 11 11 12 12 13 14 13 12 12 12 12 11 11 11 11 11 10 9 9 9 10 10 10 11 9 8 9 9 9 9 9 9 8 9 9 9 9 9 10 10 11 13 16 19 22 25 27 28 29 29 29 28 28 27 26 26 27 27 25 24 23 22 22 23 23 23 22 21 20 20 20 19 19 19 18 17 16 15 14 13 12 11 9 7 6 5 5 6 6 5 4 4 4 5 5 6 7 8 8 8 8 8 8 8 8 8 8 7 7 6 7 9 9 9 8 9 10 12 14 12 10 8 6 6 5 6 7 6 6 5 7 8 8 9 10 11 11 11 10 9 8 7 6 7 7 8 9 10 11 11 10 8 6 5 5 6 7 7 6 5 5 6 7 7 7 7 6 6 6 6 5 5 5 5 5 5 4 5 0 0 -9 -9 -9 -9 -9 -9 -9 -9 -9 -9 -9 -9 -9 -9 -9 -9 -9 -9 -9 -9 -9 -9 -9 -9 -9 -9 -9 -9 -9 -9 -9 -9 -9 -9 -9 -9 -9 -9 -9 -9 -9 -9 -9 -9 -9 -9 -9 -9 -9 -9 -9 -9 -9 -9 -9 -9 -9 -9 -9 -9 -9 -9 -9 -9 -9 -9 -9 -9 -9 -9 -9 -9 -9 -9 -9 -9 -9 -9 -9 -9 -9 -9 -9 -9 -9 -9 -9 -9 -9 -9 -9 -9 -9 -9 -9 -9 -9 -9 -9 -9 -9 -9 -9 -9 -9 -9 -9 -9 -9 -9 -9 -9 -9 -9 -9 -9 -9 -9 -9 -9 -9 -9 -9 -9 -9 -9 -9 -9 -9 -9 -9 -9 -9 -9 -9 -9 -9 -9 -9 -9 -9 -9 -9 -9 -9 -9 -9 -9 -9 -9 -9 -9 -9 -9 -9 -9 -9 -9 -9 -9 -9 -9 -9 -9 -9 -9 -9 -9 -9 -9 -9 -9 -9 -9 -9 -9 -9 -9 -9 -9 -9 -9 -9 -9 -9 -9 -9 -9 -9 -9 -9 -9 -9 -9 -9 -9 -9 -9 -9 -9 -9 -9 -9 -9 -9 -9 -9 -9 -9 -9 -9 -9 -9 -9 -9 -9 -9 -9 -9 -9 -9 -9 -9 -9 -9 -9 -9 -9 -9 -9 -9 -9 -9 -9 -9 -9 -9 -9 -9 -9 -9 -9 -9 -9 -9 -9 -9 -9 -9 -9 -9 -9 -9 -9 -9 -9 -9 -9 -9 -9 -9 -9 -9 -9 -9 -9 -9 -9 -9 -9 -9 -9 -9 -9 -9 -9 -9 -9 -9 -9 -9 -9 -9 -9 -9 -9 -9 -9 -9 -9 -9 -9 -9 -9 -9 -9 -9 -9 -9 -9 -9 -9 -9 -9 -9 -9 -9 -9 -9 -9 -9 -9 -9 -9 -9 -9 -9 -9 -9 -9 -9 -9 -9 -9 -9 -9 -9 -9 -9 -9 -9 -9 -9 -9 -9 -9 -9 -9 -9 -9 -9 -9 -9 -9 -9 -9 -9 -9 -9 -9 -9 -9 -9 -9 -9 -9 -9 -9 -9 -9 -9 -9 -9 -9 -9 -9 -9 -9 -9 -9 -9 -9 -9 -9 -9 -9 -9 -9 -9 -9 -9 -9 -9 -9 -9 -9 -9 -9 -9 -9 -9 -9 -9 -9 -9 -9 -9 -9 -9 -9 -9 -9 -9 -9 -9 -9 -9 -9 -9 -9 -9 -9 -9 -9 -9 -9 -9 -9 -9 -9 -9 -9 -9 -9 -9 -9 -9 -9 -9 -9 -9 -9 -9 -9 -9 -9 -9 -9
-9 -9 -9 -9 -9 -9 -9 -9 -9 -9 -9 -9 -9 -9 -9 -9 -9 -9 -9 -9 -9 -9 -9 -9 -9 -9 -9 -9 -9 -9 -9 -9 -9 -9 0 1 1 1 1 1 1 0 1 1 -1 -3 -1 0 0 0 0 1 2 1 0 0 0 1 2 3 2 2 2 1 0 0 0 0 1 2 3 3 3 5 6 7 8 7 3 -1 -2 -2 -3 -3 -3 -2 -3 -3 -3 -3 -3 -2 -2 -2 -2 -3 -1 1 1 1 1 -1 -3 -3 -1 0 2 4 5 5 6 6 7 7 7 7 8 9 9 9 10 9 9 8 9 9 10 11 10 10 10 10 10 11 12 12 11 11 10 10 11 11 11 10 10 11 11 10 10 9 9 9 9 9 9 9 8 8 9 10 9 9 10 9 8 8 8 7 7 10 12 12 10 10 10 10 9 9 10 10 9 9 10 11 11 11 10 10 10 11 11 10 10 10 9 7 5 3 3 3 3 5 6 6 6 6 8 9 9 11 11 11 13 13 13 13 14 14 14 15 14 12 12 12 13 13 13 13 12 12 13 14 15 14 13 13 13 13 13 14 14 14 13 12 11 12 12 12 12 13 13 13 12 12 12 10 10 10 10 10 10 10 10 10 10 11 12 12 12 12 11 11 11 12 12 12 12 13 14 14 15 16 17 18 18 18 19 18 17 18 20 21 22 23 22 22 22 23 22 21 20 20 19 21 22 21 20 20 19 19 20 21 21 19 18 17 17 17 17 18 16 16 16 16 15 16 17 16 16 17 17 16 16 15 13 12 12 13 11 9 7 6 5 6 6 6 6 6 6 5 5 6 6 6 6 8 10 10 10 11 12 18 20 20 21 21 22 23 21 19 20 21 19 15 13 13 13 13 13 12 11 10 10 10 10 10 10 10 11 10 8 9 8 8 9 9 9 10 9 10 11 11 12 11 10 9 9 9 11 12 12 12 12 13 12 12 12 12 11 10 11 11 10 9 9 11 12 13 15 14 12 12 10 9 9 9 9 9 9 10 10 10 10 10 10 12 13 13 14 15 19 22 25 27 28 29 30 31 30 30 29 28 27 26 26 25 25 24 24 23 22 23 23 22 22 21 20 18 17 17 18 18 18 17 15 14 12 11 12 12 11 9 7 6 7 5 4 3 4 5 5 4 4 3 4 5 6 6 6 7 8 8 7 7 7 6 7 8 8 9 9 9 9 9 9 10 12 12 11 9 7 5 5 6 8 8 8 7 6 6 5 6 8 10 11 10 8 7 6 6 7 10 11 11 12 11 11 11 10 9 8 7 7 6 4 4 4 6 6 7 8 8 8 7 7 7 7 6 7 7 7 7 8 8 8 7 0 0 -9 -9 -9 -9 -9 -9 -9 -9 -9 -9 -9 -9 -9 -9 -9 -9 -9 -9 -9 -9 -9 -9 -9 -9 -9 -9 -9 -9 -9 -9 -9 -9 -9 -9 -9 -9 -9 -9 -9 -9 -9 -9 -9 -9 -9 -9 -9 -9 -9 -9 -9 -9 -9 -9 -9 -9 -9 -9 -9 -9 -9 -9 -9 -9 -9 -9 -9 -9 -9 -9 -9 -9 -9 -9 -9 -9 -9 -9 -9 -9 -9 -9 -9 -9 -9 -9 -9 -9 -9 -9 -9 -9 -9 -9 -9 -9 -9 -9 -9 -9 -9 -9 -9 -9 -9 -9 -9 -9 -9 -9 -9 -9 -9 -9 -9 -9 -9 -9 -9 -9 -9 -9 -9 -9 -9 -9 -9 -9 -9 -9 -9 -9 -9 -9 -9 -9 -9 -9 -9 -9 -9 -9 -9 -9 -9 -9 -9 -9 -9 -9 -9 -9 -9 -9 -9 -9 -9 -9 -9 -9 -9 -9 -9 -9 -9 -9 -9 -9 -9 -9 -9 -9 -9 -9 -9 -9 -9 -9 -9 -9 -9 -9 -9 -9 -9 -9 -9 -9 -9 -9 -9 -9 -9 -9 -9 -9 -9 -9 -9 -9 -9 -9 -9 -9 -9 -9 -9 -9 -9 -9 -9 -9 -9 -9 -9 -9 -9 -9 -9 -9 -9 -9 -9 -9 -9 -9 -9 -9 -9 -9 -9 -9 -9 -9 -9 -9 -9 -9 -9 -9 -9 -9 -9 -9 -9 -9 -9 -9 -9 -9 -9 -9 -9 -9 -9 -9 -9 -9 -9 -9 -9 -9 -9 -9 -9 -9 -9 -9 -9 -9 -9 -9 -9 -9 -9 -9 -9 -9 -9 -9 -9 -9 -9 -9 -9 -9 -9 -9 -9 -9 -9 -9 -9 -9 -9 -9 -9 -9 -9 -9 -9 -9 -9 -9 -9 -9 -9 -9 -9 -9 -9 -9 -9 -9 -9 -9 -9 -9 -9 -9 -9 -9 -9 -9 -9 -9 -9 -9 -9 -9 -9 -9 -9 -9 -9 -9 -9 -9 -9 -9 -9 -9 -9 -9 -9 -9 -9 -9 -9 -9 -9 -9 -9 -9 -9 -9 -9 -9 -9 -9 -9 -9 -9 -9 -9 -9 -9 -9 -9 -9 -9 -9 -9 -9 -9 -9 -9 -9 -9 -9 -9 -9 -9 -9 -9 -9 -9 -9 -9 -9 -9 -9 -9 -9 -9 -9 -9 -9 -9 -9 -9 -9 -9 -9 -9 -9 -9 -9 -9 -9 -9 -9 -9 -9 -9 -9 -9 -9 -9 -9 -9 -9 -9 -9 -9 -9 -9 -9 -9 -9 -9 -9 -9 -9 -9 -9 -9 -9
-9 -9 -9 -9 -9 -9 -9 -9 -9 -9 -9 -9 -9 -9 -9 -9 -9 -9 -9 -9 -9 -9 -9 -9 -9 -9 -9 -9 0 0 0 1 1 1 -1 -2 -2 -2 -2 -1 -1 -2 -2 -1 -2 -2 -1 0 0 -1 0 1 1 2 2 3 4 4 5 4 5 4 0 -1 -1 0 0 1 1 2 2 3 3 5 6 7 7 5 1 -1 -2 -2 -3 -4 -4 -4 -4 -4 -4 -3 -3 -2 -2 -3 -3 -3 -4 -3 -2 -3 -3 -3 -3 -3 -2 0 2 3 3 4 5 6 7 7 7 7 8 9 9 9 9 9 8 9 9 9 10 11 11 11 11 11 11 11 11 12 13 13 12 12 12 11 11 11 11 10 10 10 10 10 10 10 11 10 10 9 8 9 9 10 10 10 10 9 9 8 9 9 7 8 9 8 10 13 13 12 11 9 9 9 8 9 11 11 11 11 10 11 12 12 12 11 11 9 8 6 5 4 3 2 1 3 4 5 6 6 6 8 8 9 10 10 10 10 11 12 13 13 12 13 14 12 12 11 11 12 12 12 13 13 14 14 14 14 14 13 12 12 12 12 13 13 12 11 11 11 10 10 10 10 10 10 12 11 11 11 11 11 11 11 10 9 10 9 8 10 11 11 11 12 13 13 13 13 14 13 12 14 15 16 16 15 16 16 17 17 18 18 17 18 19 20 22 23 23 23 23 23 21 20 19 19 20 20 20 20 19 20 20 20 22 23 22 20 18 17 15 15 17 17 16 16 16 15 15 16 16 16 15 15 14 14 15 15 14 12 12 15 16 13 9 6 5 6 6 6 5 6 7 7 6 6 5 5 5 8 11 10 10 10 10 12 14 14 16 18 21 22 22 20 20 22 22 17 13 13 12 12 12 13 13 13 12 12 12 12 10 9 9 10 9 8 8 9 9 9 10 10 11 11 8 7 9 10 12 11 10 10 11 11 10 10 11 12 12 11 12 12 11 11 10 9 9 10 11 13 14 15 15 15 14 13 14 12 10 9 10 11 12 12 12 13 13 13 13 15 16 17 18 19 21 22 24 26 28 29 29 29 29 30 29 28 27 26 26 26 25 25 24 23 23 23 23 22 22 22 20 18 17 17 17 17 17 17 15 14 13 13 13 13 12 10 9 8 7 5 4 3 4 3 3 3 3 3 3 4 5 6 6 7 8 8 8 7 7 7 8 9 10 10 9 9 10 10 11 11 12 12 11 11 9 7 6 7 9 10 10 10 8 6 5 4 6 7 7 6 6 6 7 7 9 11 12 13 12 12 13 12 10 9 8 8 7 6 5 5 6 7 8 7 7 7 7 8 8 9 9 8 8 8 8 9 9 9 8 7 0 0 -9 -9 -9 -9 -9 -9 -9 -9 -9 -9 -9 -9 -9 -9 -9 -9 -9 -9 -9 -9 -9 -9 -9 -9 -9 -9 -9 -9 -9 -9 -9 -9 -9 -9 -9 -9 -9 -9 -9 -9 -9 -9 -9 -9 -9 -9 -9 -9 -9 -9 -9 -9 -9 -9 -9 -9 -9 -9 -9 -9 -9 -9 -9 -9 -9 -9 -9 -9 -9 -9 -9 -9 -9 -9 -9 -9 -9 -9 -9 -9 -9 -9 -9 -9 -9 -9 -9 -9 -9 -9 -9 -9 -9 -9 -9 -9 -9 -9 -9 -9 -9 -9 -9 -9 -9 -9 -9 -9 -9 -9 -9 -9 -9 -9 -9 -9 -9 -9 -9 -9 -9 -9 -9 -9 -9 -9 -9 -9 -9 -9 -9 -9 -9 -9 -9 -9 -9 -9 -9 -9 -9 -9 -9 -9 -9 -9 -9 -9 -9 -9 -9 -9 -9 -9 -9 -9 -9 -9 -9 -9 -9 -9 -9 -9 -9 -9 -9 -9 -9 -9 -9 -9 -9 -9 -9 -9 -9 -9 -9 -9 -9 -9 -9 -9 -9 -9 -9 -9 -9 -9 -9 -9 -9 -9 -9 -9 -9 -9 -9 -9 -9 -9 -9 -9 -9 -9 -9 -9 -9 -9 -9 -9 -9 -9 -9 -9 -9 -9 -9 -9 -9 -9 -9 -9 -9 -9 -9 -9 -9 -9 -9 -9 -9 -9 -9 -9 -9 -9 -9 -9 -9 -9 -9 -9 -9 -9 -9 -9 -9 -9 -9 -9 -9 -9 -9 -9 -9 -9 -9 -9 -9 -9 -9 -9 -9 -9 -9 -9 -9 -9 -9 -9 -9 -9 -9 -9 -9 -9 -9 -9 -9 -9 -9 -9 -9 -9 -9 -9 -9 -9 -9 -9 -9 -9 -9 -9 -9 -9 -9 -9 -9 -9 -9 -9 -9 -9 -9 -9 -9 -9 -9 -9 -9 -9 -9 -9 -9 -9 -9 -9 -9 -9 -9 -9 -9 -9 -9 -9 -9 -9 -9 -9 -9 -9 -9 -9 -9 -9 -9 -9 -9 -9 -9 -9 -9 -9 -9 -9 -9 -9 -9 -9 -9 -9 -9 -9 -9 -9 -9 -9 -9 -9 -9 -9 -9 -9 -9 -9 -9 -9 -9 -9 -9 -9 -9 -9 -9 -9 -9 -9 -9 -9 -9 -9 -9 -9 -9 -9 -9 -9 -9 -9 -9 -9 -9 -9 -9 -9 -9 -9 -9 -9 -9 -9 -9 -9 -9 -9 -9 -9 -9 -9 -9 -9 -9 -9 -9 -9 -9 -9 -9 -9 -9 -9 -9 -9 -9 -9 -9 -9 -9 -9 -9 -9 -9 -9 -9 -9
-9 -9 -9 -9 -9 -9 -9 -9 -9 -9 -9 -9 -9 -9 -9 -9 -9 -9 -9 -9 -9 -9 -9 -9 -9 0 0 0 0 1 1 1 -2 0 0 0 0 0 -1 -2 -2 -2 -2 -1 -2 -1 0 1 0 0 0 1 2 3 3 5 6 6 5 4 4 4 1 -1 0 1 1 1 1 1 2 3 5 7 7 7 6 4 0 -2 -3 -2 -3 -3 -3 -3 -4 -4 -3 -3 -2 -2 -2 -3 -3 -3 -4 -3 -3 -4 -3 -3 -3 -2 -1 0 1 2 3 4 4 5 6 7 6 8 9 10 10 9 9 9 8 9 10 9 9 10 10 10 11 11 12 11 11 12 13 13 13 13 12 11 11 12 11 10 10 10 10 11 10 9 10 11 11 10 9 9 10 10 10 11 10 10 9 9 9 9 8 7 7 7 9 11 13 13 12 10 9 8 9 9 11 12 11 11 11 11 12 11 11 11 10 9 8 5 3 2 2 2 1 3 4 5 6 6 6 7 7 7 8 8 8 9 11 12 13 13 12 13 13 12 12 11 10 11 11 12 12 13 13 14 14 15 14 13 12 12 12 11 12 12 12 10 10 11 10 9 9 9 9 10 11 11 10 10 11 11 12 12 10 9 9 10 10 11 11 11 12 13 13 13 13 13 13 12 11 11 12 14 15 15 15 16 17 17 18 18 17 17 19 20 21 22 23 23 23 22 21 20 19 18 19 18 18 19 18 19 20 20 22 22 21 20 18 17 15 15 16 16 16 17 16 16 15 16 16 16 16 14 13 13 14 14 14 13 12 14 16 15 11 8 7 7 7 7 6 8 10 9 7 6 6 6 9 12 10 9 9 10 9 10 11 10 13 18 21 22 23 21 21 21 22 18 14 13 13 12 12 12 13 13 12 11 11 11 10 9 10 11 10 8 8 9 9 9 10 11 11 11 8 7 9 9 10 10 11 11 11 11 10 11 12 13 13 13 13 11 10 10 10 10 10 11 12 14 15 15 15 15 14 13 14 14 12 10 11 12 13 13 13 14 15 15 15 16 17 18 19 20 21 22 23 25 27 28 29 29 29 30 30 29 28 27 27 27 26 25 24 24 24 23 23 22 22 22 20 19 17 17 17 17 17 16 14 13 14 15 15 13 12 12 10 9 7 5 4 4 4 3 3 2 2 2 3 4 6 7 7 7 8 9 10 9 9 8 8 8 9 10 9 10 10 11 12 12 13 13 12 11 10 9 7 8 10 10 10 10 8 7 6 6 6 6 6 5 4 6 7 8 10 11 12 12 13 13 13 12 10 9 8 8 7 6 5 5 6 7 8 8 7 7 7 8 8 8 9 8 8 8 9 10 11 10 9 7 0 0 -9 -9 -9 -9 -9 -9 -9 -9 -9 -9 -9 -9 -9 -9 -9 -9 -9 -9 -9 -9 -9 -9 -9 -9 -9 -9 -9 -9 -9 -9 -9 -9 -9 -9 -9 -9 -9 -9 -9 -9 -9 -9 -9 -9 -9 -9 -9 -9 -9 -9 -9 -9 -9 -9 -9 -9 -9 -9 -9 -9 -9 -9 -9 -9 -9 -9 -9 -9 -9 -9 -9 -9 -9 -9 -9 -9 -9 -9 -9 -9 -9 -9 -9 -9 -9 -9 -9 -9 -9 -9 -9 -9 -9 -9 -9 -9 -9 -9 -9 -9 -9 -9 -9 -9 -9 -9 -9 -9 -9 -9 -9 -9 -9 -9 -9 -9 -9 -9 -9 -9 -9 -9 -9 -9 -9 -9 -9 -9 -9 -9 -9 -9 -9 -9 -9 -9 -9 -9 -9 -9 -9 -9 -9 -9 -9 -9 -9 -9 -9 -9 -9 -9 -9 -9 -9 -9 -9 -9 -9 -9 -9 -9 -9 -9 -9 -9 -9 -9 -9 -9 -9 -9 -9 -9 -9 -9 -9 -9 -9 -9 -9 -9 -9 -9 -9 -9 -9 -9 -9 -9 -9 -9 -9 -9 -9 -9 -9 -9 -9 -9 -9 -9 -9 -9 -9 -9 -9 -9 -9 -9 -9 -9 -9 -9 -9 -9 -9 -9 -9 -9 -9 -9 -9 -9 -9 -9 -9 -9 -9 -9 -9 -9 -9 -9 -9 -9 -9 -9 -9 -9 -9 -9 -9 -9 -9 -9 -9 -9 -9 -9 -9 -9 -9 -9 -9 -9 -9 -9 -9 -9 -9 -9 -9 -9 -9 -9 -9 -9 -9 -9 -9 -9 -9 -9 -9 -9 -9 -9 -9 -9 -9 -9 -9 -9 -9 -9 -9 -9 -9 -9 -9 -9 -9 -9 -9 -9 -9 -9 -9 -9 -9 -9 -9 -9 -9 -9 -9 -9 -9 -9 -9 -9 -9 -9 -9 -9 -9 -9 -9 -9 -9 -9 -9 -9 -9 -9 -9 -9 -9 -9 -9 -9 -9 -9 -9 -9 -9 -9 -9 -9 -9 -9 -9 -9 -9 -9 -9 -9 -9 -9 -9 -9 -9 -9 -9 -9 -9 -9 -9 -9 -9 -9 -9 -9 -9 -9 -9 -9 -9 -9 -9 -9 -9 -9 -9 -9 -9 -9 -9 -9 -9 -9 -9 -9 -9 -9 -9 -9 -9 -9 -9 -9 -9 -9 -9 -9 -9 -9 -9 -9 -9 -9 -9 -9 -9 -9 -9 -9 -9 -9 -9 -9 -9 -9 -9 -9 -9 -9 -9 -9 -9 -9 -9 -9 -9 -9 -9 -9 -9 -9 -9 -9 -9 -9 -9 -9 -9 -9
-9 -9 -9 -9 -9 -9 -9 -9 -9 -9 -9 -9 -9 -9 -9 -9 -9 -9 -9 -9 -9 0 0 0 1 1 1 1 0 1 2 1 0 0 -1 0 0 0 -1 -2 -1 0 1 1 0 0 0 0 0 0 0 1 0 -1 1 3 4 4 4 2 1 0 -1 -1 -1 0 1 2 2 2 3 5 7 7 7 5 3 0 -2 -3 -3 -2 -2 -3 -3 -3 -2 -3 -3 -3 -2 -3 -3 -4 -2 -2 -3 -3 -3 -4 -4 -4 -5 -4 -3 -2 -1 -1 0 2 3 3 3 5 6 7 8 9 8 7 7 7 6 7 8 9 9 10 9 10 11 12 12 11 12 12 12 13 14 13 13 13 12 12 12 11 11 11 11 11 11 11 11 11 11 10 9 8 9 10 10 10 10 11 10 9 8 8 8 7 8 8 8 8 10 11 11 10 9 9 10 12 14 15 15 15 14 12 11 10 10 9 8 8 6 3 1 1 1 2 2 3 5 6 6 5 5 4 4 4 5 5 6 7 9 10 11 12 11 11 11 11 11 10 10 10 11 11 12 12 12 12 13 13 13 13 13 12 11 10 10 11 11 10 10 10 12 11 10 9 9 9 9 9 9 9 9 10 10 10 9 8 7 9 10 11 11 10 11 13 14 14 13 12 12 10 9 9 9 10 13 15 15 15 16 16 17 17 16 17 19 20 21 22 22 21 21 21 20 20 20 19 18 17 17 17 17 17 18 19 20 21 20 19 18 17 16 16 17 18 18 17 16 15 15 15 14 14 14 14 13 13 14 14 14 14 13 12 12 13 14 15 13 12 12 13 11 11 11 10 11 14 17 18 17 14 12 10 12 14 13 12 11 10 12 18 21 23 22 22 22 21 22 19 15 13 13 13 13 12 11 10 10 10 11 12 12 12 13 13 12 10 9 9 9 7 8 10 11 10 8 6 7 9 8 8 10 10 10 10 12 13 14 15 15 15 15 13 11 10 10 11 12 13 12 13 14 15 15 14 14 14 15 16 16 15 14 12 12 12 12 13 15 16 16 17 17 17 19 21 22 23 24 23 24 26 27 29 30 30 29 29 29 28 27 26 26 26 26 25 24 22 22 21 21 20 17 16 15 15 15 15 16 15 14 13 14 16 17 17 16 14 13 11 9 6 5 4 3 3 3 2 2 2 3 5 6 7 6 7 9 10 10 10 10 9 8 8 9 9 9 10 9 9 10 12 14 14 13 13 12 11 11 11 11 12 12 12 10 9 9 9 8 6 4 1 0 3 6 8 10 10 10 11 12 12 12 12 12 11 10 9 8 7 7 7 7 8 8 8 8 7 7 7 7 8 8 8 9 9 10 10 10 10 9 7 0 0 -9 -9 -9 -9 -9 -9 -9 -9 -9 -9 -9 -9 -9 -9 -9 -9 -9 -9 -9 -9 -9 -9 -9 -9 -9 -9 -9 -9 -9 -9 -9 -9 -9 -9 -9 -9 -9 -9 -9 -9 -9 -9 -9 -9 -9 -9 -9 -9 -9 -9 -9 -9 -9 -9 -9 -9 -9 -9 -9 -9 -9 -9 -9 -9 -9 -9 -9 -9 -9 -9 -9 -9 -9 -9 -9 -9 -9 -9 -9 -9 -9 -9 -9 -9 -9 -9 -9 -9 -9 -9 -9 -9 -9 -9 -9 -9 -9 -9 -9 -9 -9 -9 -9 -9 -9 -9 -9 -9 -9 -9 -9 -9 -9 -9 -9 -9 -9 -9 -9 -9 -9 -9 -9 -9 -9 -9 -9 -9 -9 -9 -9 -9 -9 -9 -9 -9 -9 -9 -9 -9 -9 -9 -9 -9 -9 -9 -9 -9 -9 -9 -9 -9 -9 -9 -9 -9 -9 -9 -9 -9 -9 -9 -9 -9 -9 -9 -9 -9 -9 -9 -9 -9 -9 -9 -9 -9 -9 -9 -9 -9 -9 -9 -9 -9 -9 -9 -9 -9 -9 -9 -9 -9 -9 -9 -9 -9 -9 -9 -9 -9 -9 -9 -9 -9 -9 -9 -9 -9 -9 -9 -9 -9 -9 -9 -9 -9 -9 -9 -9 -9 -9 -9 -9 -9 -9 -9 -9 -9 -9 -9 -9 -9 -9 -9 -9 -9 -9 -9 -9 -9 -9 -9 -9 -9 -9 -9 -9 -9 -9 -9 -9 -9 -9 -9 -9 -9 -9 -9 -9 -9 -9 -9 -9 -9 -9 -9 -9 -9 -9 -9 -9 -9 -9 -9 -9 -9 -9 -9 -9 -9 -9 -9 -9 -9 -9 -9 -9 -9 -9 -9 -9 -9 -9 -9 -9 -9 -9 -9 -9 -9 -9 -9 -9 -9 -9 -9 -9 -9 -9 -9 -9 -9 -9 -9 -9 -9 -9 -9 -9 -9 -9 -9 -9 -9 -9 -9 -9 -9 -9 -9 -9 -9 -9 -9 -9 -9 -9 -9 -9 -9 -9 -9 -9 -9 -9 -9 -9 -9 -9 -9 -9 -9 -9 -9 -9 -9 -9 -9 -9 -9 -9 -9 -9 -9 -9 -9 -9 -9 -9 -9 -9 -9 -9 -9 -9 -9 -9 -9 -9 -9 -9 -9 -9 -9 -9 -9 -9 -9 -9 -9 -9 -9 -9 -9 -9 -9 -9 -9 -9 -9 -9 -9 -9 -9 -9 -9 -9 -9 -9 -9 -9 -9 -9 -9 -9 -9 -9 -9 -9 -9 -9 -9 -9 -9 -9 -9 -9 -9 -9 -9 -9 -9 -9 -9 -9 -9 -9 -9
-9 -9 -9 -9 -9 -9 -9 -9 -9 -9 -9 -9 -9 -9 -9 -9 -9 -9 1 1 1 1 -2 -1 -1 0 1 0 -2 -1 1 1 1 0 -1 -1 0 0 0 -1 -1 0 1 0 0 0 -1 -1 -1 -1 -2 -1 -1 -2 -2 -2 -1 0 2 3 3 1 -1 -2 -2 -1 0 0 1 3 5 5 5 4 3 0 -3 -4 -4 -4 -3 -2 -2 -3 -3 -3 -3 -2 -2 -3 -4 -4 -4 -4 -3 -3 -3 -3 -4 -4 -4 -4 -3 -4 -4 -3 -3 -2 -2 -1 0 0 0 1 3 4 5 5 5 5 5 5 5 5 6 7 8 8 9 10 10 11 12 11 11 12 13 13 13 12 12 12 12 13 13 13 13 12 12 13 13 13 12 11 11 11 10 10 9 9 10 10 10 11 10 9 9 9 8 9 9 9 8 8 8 9 10 11 11 12 12 13 15 17 20 20 20 18 16 14 11 7 3 1 1 2 2 3 2 3 3 3 2 3 4 4 4 4 3 2 1 2 3 3 4 5 7 9 10 10 10 10 10 9 9 10 10 10 11 11 11 12 12 12 12 12 12 10 9 10 10 9 9 9 9 9 9 9 9 9 9 8 8 8 7 7 8 9 9 9 8 7 7 8 10 11 12 11 11 11 11 11 11 11 11 10 9 10 11 12 13 14 12 12 13 13 13 14 15 16 17 17 18 19 20 20 20 20 19 19 19 19 18 18 18 18 18 19 20 20 20 19 19 19 19 18 17 17 18 17 17 17 16 15 15 15 14 14 14 14 14 13 12 12 12 12 12 12 12 12 11 14 17 19 20 20 19 17 16 17 18 19 19 17 14 12 11 11 11 13 15 16 14 12 14 18 20 20 20 22 22 23 20 15 12 11 12 13 12 12 12 11 11 11 11 11 12 12 12 13 13 12 11 10 10 8 8 9 10 10 9 8 8 8 8 8 9 9 9 9 11 12 13 13 14 15 14 12 11 10 10 11 12 12 13 13 13 13 13 13 14 14 14 16 17 17 17 16 14 13 13 14 15 15 15 16 16 16 18 21 24 27 28 26 25 25 27 28 29 30 29 29 29 28 28 26 25 25 24 23 23 21 21 22 21 20 17 15 14 13 14 14 14 13 15 16 16 15 16 17 18 17 15 13 10 9 9 7 4 3 3 3 3 4 5 6 7 8 9 9 9 8 7 8 9 9 9 9 9 10 10 9 9 9 9 10 12 13 13 14 14 13 13 13 12 13 13 12 10 8 7 6 6 5 3 2 1 1 3 7 9 10 10 10 10 11 11 12 12 12 11 9 8 7 7 8 8 8 7 6 7 7 7 7 7 6 7 8 8 9 9 9 9 10 10 7 0 0 -9 -9 -9 -9 -9 -9 -9 -9 -9 -9 -9 -9 -9 -9 -9 -9 -9 -9 -9 -9 -9 -9 -9 -9 -9 -9 -9 -9 -9 -9 -9 -9 -9 -9 -9 -9 -9 -9 -9 -9 -9 -9 -9 -9 -9 -9 -9 -9 -9 -9 -9 -9 -9 -9 -9 -9 -9 -9 -9 -9 -9 -9 -9 -9 -9 -9 -9 -9 -9 -9 -9 -9 -9 -9 -9 -9 -9 -9 -9 -9 -9 -9 -9 -9 -9 -9 -9 -9 -9 -9 -9 -9 -9 -9 -9 -9 -9 -9 -9 -9 -9 -9 -9 -9 -9 -9 -9 -9 -9 -9 -9 -9 -9 -9 -9 -9 -9 -9 -9 -9 -9 -9 -9 -9 -9 -9 -9 -9 -9 -9 -9 -9 -9 -9 -9 -9 -9 -9 -9 -9 -9 -9 -9 -9 -9 -9 -9 -9 -9 -9 -9 -9 -9 -9 -9 -9 -9 -9 -9 -9 -9 -9 -9 -9 -9 -9 -9 -9 -9 -9 -9 -9 -9 -9 -9 -9 -9 -9 -9 -9 -9 -9 -9 -9 -9 -9 -9 -9 -9 -9 -9 -9 -9 -9 -9 -9 -9 -9 -9 -9 -9 -9 -9 -9 -9 -9 -9 -9 -9 -9 -9 -9 -9 -9 -9 -9 -9 -9 -9 -9 -9 -9 -9 -9 -9 -9 -9 -9 -9 -9 -9 -9 -9 -9 -9 -9 -9 -9 -9 -9 -9 -9 -9 -9 -9 -9 -9 -9 -9 -9 -9 -9 -9 -9 -9 -9 -9 -9 -9 -9 -9 -9 -9 -9 -9 -9 -9 -9 -9 -9 -9 -9 -9 -9 -9 -9 -9 -9 -9 -9 -9 -9 -9 -9 -9 -9 -9 -9 -9 -9 -9 -9 -9 -9 -9 -9 -9 -9 -9 -9 -9 -9 -9 -9 -9 -9 -9 -9 -9 -9 -9 -9 -9 -9 -9 -9 -9 -9 -9 -9 -9 -9 -9 -9 -9 -9 -9 -9 -9 -9 -9 -9 -9 -9 -9 -9 -9 -9 -9 -9 -9 -9 -9 -9 -9 -9 -9 -9 -9 -9 -9 -9 -9 -9 -9 -9 -9 -9 -9 -9 -9 -9 -9 -9 -9 -9 -9 -9 -9 -9 -9 -9 -9 -9 -9 -9 -9 -9 -9 -9 -9 -9 -9 -9 -9 -9 -9 -9 -9 -9 -9 -9 -9 -9 -9 -9 -9 -9 -9 -9 -9 -9 -9 -9 -9 -9 -9 -9 -9 -9 -9 -9 -9 -9 -9 -9 -9 -9 -9 -9 -9 -9 -9 -9 -9 -9 -9 -9 -9 -9 -9 -9 -9 -9 -9 -9 -9 -9
-9 -9 -9 -9 -9 -9 -9 -9 -9 -9 -9 -9 -9 -9 1 1 0 1 2 1 -2 -2 -2 0 0 0 1 1 1 0 -1 -1 -1 0 0 1 0 0 1 2 2 2 1 0 -1 -2 -1 0 0 -2 -3 -2 -2 -1 -2 -3 -3 -2 -1 -2 -1 -1 -1 -1 -2 -2 -2 -2 -1 2 4 4 3 0 -1 -3 -4 -3 -3 -3 -3 -3 -3 -3 -3 -2 -1 -1 -2 -2 -3 -3 -4 -4 -4 -4 -4 -4 -4 -4 -3 -3 -3 -3 -3 -3 -4 -4 -3 -2 -2 -2 -1 1 2 2 2 2 2 2 2 3 4 5 5 5 6 6 8 9 10 10 11 11 11 12 12 12 13 13 13 12 13 13 12 11 12 13 13 12 12 12 12 12 12 12 12 11 11 10 10 10 10 11 11 11 11 11 11 11 10 9 10 9 9 9 9 10 10 11 13 15 16 18 18 18 18 16 14 11 8 4 0 -1 -1 1 3 4 3 2 2 2 1 2 3 4 4 4 3 3 2 0 0 0 0 1 2 4 7 8 9 9 9 8 8 9 10 11 11 11 12 12 11 11 10 9 10 9 9 9 9 8 7 7 6 6 5 6 7 7 7 7 6 7 8 9 9 10 10 9 8 7 6 6 8 11 12 13 13 13 13 12 11 11 11 11 11 10 10 12 13 13 11 12 13 14 14 14 15 16 16 17 17 18 18 18 18 18 18 17 16 16 17 18 18 17 18 19 19 20 19 17 19 20 20 20 18 17 16 17 17 17 16 16 16 15 14 15 17 17 16 17 15 14 13 13 12 12 12 12 12 12 13 14 16 17 18 17 17 17 17 16 15 14 13 12 11 11 10 9 10 12 11 10 11 13 13 16 19 21 21 20 18 15 13 12 12 12 13 13 12 11 10 11 11 11 12 11 10 10 11 11 10 10 11 10 10 10 10 10 11 11 10 10 10 10 11 11 12 12 12 11 11 12 13 13 12 12 12 12 13 13 13 12 12 12 13 14 14 13 12 12 13 14 15 16 16 16 15 14 14 14 15 16 16 15 15 18 22 26 29 30 31 29 28 27 26 28 29 30 29 28 27 27 27 26 24 23 23 22 21 20 20 20 19 17 15 14 13 12 13 13 14 13 14 14 14 13 14 13 14 15 15 15 13 12 11 11 8 5 5 4 4 4 6 8 9 10 10 10 10 11 9 8 7 7 8 9 10 11 12 11 10 10 11 12 12 13 14 14 14 13 13 12 11 12 12 11 9 7 5 4 5 5 4 3 2 1 2 4 7 8 8 7 7 8 10 10 11 11 11 10 9 7 6 5 6 6 7 6 6 7 7 7 7 7 7 7 8 9 9 9 8 8 8 8 0 0 -9 -9 -9 -9 -9 -9 -9 -9 -9 -9 -9 -9 -9 -9 -9 -9 -9 -9 -9 -9 -9 -9 -9 -9 -9 -9 -9 -9 -9 -9 -9 -9 -9 -9 -9 -9 -9 -9 -9 -9 -9 -9 -9 -9 -9 -9 -9 -9 -9 -9 -9 -9 -9 -9 -9 -9 -9 -9 -9 -9 -9 -9 -9 -9 -9 -9 -9 -9 -9 -9 -9 -9 -9 -9 -9 -9 -9 -9 -9 -9 -9 -9 -9 -9 -9 -9 -9 -9 -9 -9 -9 -9 -9 -9 -9 -9 -9 -9 -9 -9 -9 -9 -9 -9 -9 -9 -9 -9 -9 -9 -9 -9 -9 -9 -9 -9 -9 -9 -9 -9 -9 -9 -9 -9 -9 -9 -9 -9 -9 -9 -9 -9 -9 -9 -9 -9 -9 -9 -9 -9 -9 -9 -9 -9 -9 -9 -9 -9 -9 -9 -9 -9 -9 -9 -9 -9 -9 -9 -9 -9 -9 -9 -9 -9 -9 -9 -9 -9 -9 -9 -9 -9 -9 -9 -9 -9 -9 -9 -9 -9 -9 -9 -9 -9 -9 -9 -9 -9 -9 -9 -9 -9 -9 -9 -9 -9 -9 -9 -9 -9 -9 -9 -9 -9 -9 -9 -9 -9 -9 -9 -9 -9 -9 -9 -9 -9 -9 -9 -9 -9 -9 -9 -9 -9 -9 -9 -9 -9 -9 -9 -9 -9 -9 -9 -9 -9 -9 -9 -9 -9 -9 -9 -9 -9 -9 -9 -9 -9 -9 -9 -9 -9 -9 -9 -9 -9 -9 -9 -9 -9 -9 -9 -9 -9 -9 -9 -9 -9 -9 -9 -9 -9 -9 -9 -9 -9 -9 -9 -9 -9 -9 -9 -9 -9 -9 -9 -9 -9 -9 -9 -9 -9 -9 -9 -9 -9 -9 -9 -9 -9 -9 -9 -9 -9 -9 -9 -9 -9 -9 -9 -9 -9 -9 -9 -9 -9 -9 -9 -9 -9 -9 -9 -9 -9 -9 -9 -9 -9 -9 -9 -9 -9 -9 -9 -9 -9 -9 -9 -9 -9 -9 -9 -9 -9 -9 -9 -9 -9 -9 -9 -9 -9 -9 -9 -9 -9 -9 -9 -9 -9 -9 -9 -9 -9 -9 -9 -9 -9 -9 -9 -9 -9 -9 -9 -9 -9 -9 -9 -9 -9 -9 -9 -9 -9 -9 -9 -9 -9 -9 -9 -9 -9 -9 -9 -9 -9 -9 -9 -9 -9 -9 -9 -9 -9 -9 -9 -9 -9 -9 -9 -9 -9 -9 -9 -9 -9 -9 -9 -9 -9 -9 -9 -9 -9 -9 -9 -9 -9 -9 -9 -9 -9 -9 -9 -9 -9 -9 -9
-9 -9 -9 -9 -9 -9 -9 -9 -9 -9 -9 6 4 2 2 3 2 1 1 0 0 0 0 -2 -1 0 0 1 1 1 1 0 1 1 2 2 2 2 1 0 0 0 0 -1 -3 -2 -1 -1 -2 -2 -2 -2 -2 -1 -1 -2 -3 -2 -2 -2 -1 -1 -2 -2 -2 -2 -1 -2 -2 -1 0 -1 -1 -2 -2 -3 -4 -4 -4 -3 -3 -3 -5 -5 -5 -5 -5 -5 -5 -3 -1 -2 -3 -3 -2 -1 -2 -2 -3 -3 -2 -3 -4 -4 -4 -4 -4 -4 -4 -4 -3 -2 0 2 3 3 2 1 1 2 2 2 3 4 3 4 5 6 7 8 8 7 8 9 10 10 11 11 11 13 13 13 13 13 12 12 12 12 12 11 11 11 10 10 11 12 12 12 11 11 11 11 11 12 11 10 10 11 11 11 10 10 10 9 8 8 7 8 11 11 10 12 14 14 14 14 14 15 14 11 6 2 0 -1 0 2 3 2 2 1 2 2 2 2 3 3 3 4 3 2 2 1 1 0 0 0 0 1 3 5 7 7 7 7 8 9 10 10 10 11 11 11 10 9 8 8 8 8 8 8 8 8 7 6 4 4 6 6 6 6 6 6 6 6 5 7 9 10 9 8 6 5 7 8 10 12 13 14 14 14 14 13 12 12 12 11 11 11 11 11 12 13 13 14 14 13 13 15 16 17 17 17 17 17 17 16 16 16 16 17 17 17 17 17 17 18 18 19 19 17 16 17 19 20 20 19 17 17 17 17 17 16 16 16 16 16 14 15 17 18 19 18 16 15 14 14 14 13 12 13 14 12 11 11 11 11 12 12 12 12 12 13 14 15 14 13 13 12 11 10 10 10 9 8 8 9 10 9 11 13 13 13 13 13 13 12 11 11 12 12 11 10 9 10 10 9 10 11 10 9 9 10 9 9 9 10 10 9 10 10 11 11 10 8 9 10 12 12 13 13 13 12 11 12 13 13 13 12 11 12 12 13 14 14 13 12 12 12 12 12 12 11 12 12 13 14 15 16 15 14 13 13 14 16 17 18 20 24 27 29 30 31 32 32 31 29 28 28 29 30 30 29 29 28 27 26 24 23 23 23 21 20 19 19 16 14 12 13 13 14 14 14 15 14 14 13 12 11 12 11 10 12 14 15 13 11 10 10 10 7 7 6 5 4 3 5 7 8 9 10 10 11 10 9 8 8 7 7 8 9 10 11 11 12 11 11 12 13 13 14 14 13 13 12 12 10 9 7 5 4 5 6 6 5 4 3 2 2 3 5 7 8 9 8 7 6 7 8 8 8 9 9 8 6 5 3 2 2 4 5 6 6 6 5 6 6 6 7 8 9 9 9 8 8 8 8 0 0 -9 -9 -9 -9 -9 -9 -9 -9 -9 -9 -9 -9 -9 -9 -9 -9 -9 -9 -9 -9 -9 -9 -9 -9 -9 -9 -9 -9 -9 -9 -9 -9 -9 -9 -9 -9 -9 -9 -9 -9 -9 -9 -9 -9 -9 -9 -9 -9 -9 -9 -9 -9 -9 -9 -9 -9 -9 -9 -9 -9 -9 -9 -9 -9 -9 -9 -9 -9 -9 -9 -9 -9 -9 -9 -9 -9 -9 -9 -9 -9 -9 -9 -9 -9 -9 -9 -9 -9 -9 -9 -9 -9 -9 -9 -9 -9 -9 -9 -9 -9 -9 -9 -9 -9 -9 -9 -9 -9 -9 -9 -9 -9 -9 -9 -9 -9 -9 -9 -9 -9 -9 -9 -9 -9 -9 -9 -9 -9 -9 -9 -9 -9 -9 -9 -9 -9 -9 -9 -9 -9 -9 -9 -9 -9 -9 -9 -9 -9 -9 -9 -9 -9 -9 -9 -9 -9 -9 -9 -9 -9 -9 -9 -9 -9 -9 -9 -9 -9 -9 -9 -9 -9 -9 -9 -9 -9 -9 -9 -9 -9 -9 -9 -9 -9 -9 -9 -9 -9 -9 -9 -9 -9 -9 -9 -9 -9 -9 -9 -9 -9 -9 -9 -9 -9 -9 -9 -9 -9 -9 -9 -9 -9 -9 -9 -9 -9 -9 -9 -9 -9 -9 -9 -9 -9 -9 -9 -9 -9 -9 -9 -9 -9 -9 -9 -9 -9 -9 -9 -9 -9 -9 -9 -9 -9 -9 -9 -9 -9 -9 -9 -9 -9 -9 -9 -9 -9 -9 -9 -9 -9 -9 -9 -9 -9 -9 -9 -9 -9 -9 -9 -9 -9 -9 -9 -9 -9 -9 -9 -9 -9 -9 -9 -9 -9 -9 -9 -9 -9 -9 -9 -9 -9 -9 -9 -9 -9 -9 -9 -9 -9 -9 -9 -9 -9 -9 -9 -9 -9 -9 -9 -9 -9 -9 -9 -9 -9 -9 -9 -9 -9 -9 -9 -9 -9 -9 -9 -9 -9 -9 -9 -9 -9 -9 -9 -9 -9 -9 -9 -9 -9 -9 -9 -9 -9 -9 -9 -9 -9 -9 -9 -9 -9 -9 -9 -9 -9 -9 -9 -9 -9 -9 -9 -9 -9 -9 -9 -9 -9 -9 -9 -9 -9 -9 -9 -9 -9 -9 -9 -9 -9 -9 -9 -9 -9 -9 -9 -9 -9 -9 -9 -9 -9 -9 -9 -9 -9 -9 -9 -9 -9 -9 -9 -9 -9 -9 -9 -9 -9 -9 -9 -9 -9 -9 -9 -9 -9 -9 -9 -9 -9 -9 -9 -9 -9 -9 -9 -9 -9 -9 -9 -9 -9 -9 -9 -9 -9 -9 -9
-9 -9 -9 -9 -9 15 16 16 16 17 15 12 8 5 4 4 3 2 2 1 0 1 1 0 1 2 3 3 5 5 4 2 2 2 1 0 0 0 0 0 -1 -2 -2 -2 -2 -2 -2 -2 -3 -2 -2 -2 -2 -2 -2 -2 -3 -2 -2 -2 -2 -1 -1 -2 -2 -2 -2 -2 -3 -4 -2 -3 -3 -3 -3 -3 -3 -3 -4 -4 -5 -5 -5 -5 -5 -5 -5 -5 -5 -5 -5 -5 -5 -5 -5 -2 -3 -3 -3 -3 -3 -4 -3 -4 -5 -4 -4 -4 -5 -4 -3 -2 0 1 2 3 3 1 0 -1 0 1 2 3 3 4 5 6 6 7 8 9 10 10 10 10 10 10 10 11 11 12 12 13 13 13 12 12 12 11 11 12 12 11 11 12 12 11 11 11 12 12 12 12 12 12 11 11 10 11 10 10 10 9 8 7 7 9 11 11 13 13 13 14 13 13 12 11 10 8 5 3 3 4 3 3 1 0 -1 0 0 1 2 2 3 3 4 3 3 3 3 3 1 1 1 1 1 1 1 2 4 6 6 7 7 8 9 9 10 10 10 9 9 8 7 7 7 8 7 6 7 8 8 6 4 4 6 7 6 5 5 5 6 6 6 7 7 8 9 8 7 6 8 9 10 9 10 13 14 14 15 14 13 12 11 11 12 11 11 11 11 12 12 13 14 13 14 15 15 16 17 18 17 16 17 18 18 18 18 18 18 18 18 18 17 18 19 19 18 17 18 17 17 18 19 19 18 17 17 17 17 17 16 16 17 16 16 16 15 14 14 14 14 14 13 13 13 13 13 12 11 11 11 11 12 12 13 13 13 12 13 14 15 15 16 16 16 15 12 10 10 10 9 9 9 8 8 7 9 12 12 13 14 15 14 13 12 12 12 11 10 9 8 9 9 8 8 9 10 9 8 9 10 9 9 9 10 10 9 9 9 9 9 9 9 9 10 11 12 13 13 13 12 12 12 12 12 11 10 11 12 12 13 14 13 13 12 12 12 12 12 11 12 13 13 13 14 15 16 15 15 15 16 17 18 21 23 26 29 30 31 31 32 31 30 30 30 28 27 27 27 28 28 28 26 25 23 23 22 21 20 18 17 15 15 15 14 14 14 15 16 16 17 17 16 15 13 11 10 10 11 13 14 14 13 12 11 11 9 7 7 6 5 4 4 4 3 5 7 9 10 10 10 9 8 9 9 9 9 10 9 10 11 12 12 13 14 15 15 14 14 13 12 11 10 9 7 5 4 4 4 5 6 7 5 4 3 4 6 7 8 8 8 7 6 5 5 7 7 7 6 6 6 6 5 3 3 2 3 4 4 3 3 3 3 4 5 6 7 7 8 9 9 9 8 8 0 0 -9 -9 -9 -9 -9 -9 -9 -9 -9 -9 -9 -9 -9 -9 -9 -9 -9 -9 -9 -9 -9 -9 -9 -9 -9 -9 -9 -9 -9 -9 -9 -9 -9 -9 -9 -9 -9 -9 -9 -9 -9 -9 -9 -9 -9 -9 -9 -9 -9 -9 -9 -9 -9 -9 -9 -9 -9 -9 -9 -9 -9 -9 -9 -9 -9 -9 -9 -9 -9 -9 -9 -9 -9 -9 -9 -9 -9 -9 -9 -9 -9 -9 -9 -9 -9 -9 -9 -9 -9 -9 -9 -9 -9 -9 -9 -9 -9 -9 -9 -9 -9 -9 -9 -9 -9 -9 -9 -9 -9 -9 -9 -9 -9 -9 -9 -9 -9 -9 -9 -9 -9 -9 -9 -9 -9 -9 -9 -9 -9 -9 -9 -9 -9 -9 -9 -9 -9 -9 -9 -9 -9 -9 -9 -9 -9 -9 -9 -9 -9 -9 -9 -9 -9 -9 -9 -9 -9 -9 -9 -9 -9 -9 -9 -9 -9 -9 -9 -9 -9 -9 -9 -9 -9 -9 -9 -9 -9 -9 -9 -9 -9 -9 -9 -9 -9 -9 -9 -9 -9 -9 -9 -9 -9 -9 -9 -9 -9 -9 -9 -9 -9 -9 -9 -9 -9 -9 -9 -9 -9 -9 -9 -9 -9 -9 -9 -9 -9 -9 -9 -9 -9 -9 -9 -9 -9 -9 -9 -9 -9 -9 -9 -9 -9 -9 -9 -9 -9 -9 -9 -9 -9 -9 -9 -9 -9 -9 -9 -9 -9 -9 -9 -9 -9 -9 -9 -9 -9 -9 -9 -9 -9 -9 -9 -9 -9 -9 -9 -9 -9 -9 -9 -9 -9 -9 -9 -9 -9 -9 -9 -9 -9 -9 -9 -9 -9 -9 -9 -9 -9 -9 -9 -9 -9 -9 -9 -9 -9 -9 -9 -9 -9 -9 -9 -9 -9 -9 -9 -9 -9 -9 -9 -9 -9 -9 -9 -9 -9 -9 -9 -9 -9 -9 -9 -9 -9 -9 -9 -9 -9 -9 -9 -9 -9 -9 -9 -9 -9 -9 -9 -9 -9 -9 -9 -9 -9 -9 -9 -9 -9 -9 -9 -9 -9 -9 -9 -9 -9 -9 -9 -9 -9 -9 -9 -9 -9 -9 -9 -9 -9 -9 -9 -9 -9 -9 -9 -9 -9 -9 -9 -9 -9 -9 -9 -9 -9 -9 -9 -9 -9 -9 -9 -9 -9 -9 -9 -9 -9 -9 -9 -9 -9 -9 -9 -9 -9 -9 -9 -9 -9 -9 -9 -9 -9 -9 -9 -9 -9 -9 -9 -9 -9 -9 -9 -9 -9 -9 -9 -9 -9 -9 -9 -9 -9 -9 -9 -9 -9 -9
-9 -9 -9 -9 -9 16 18 19 19 16 14 11 8 7 8 8 5 3 3 4 2 1 2 3 3 3 4 5 6 6 6 4 2 -1 -2 -2 -1 -1 -1 -1 -1 -2 -3 -2 -1 -2 -3 -3 -3 -3 -2 -2 -2 -2 -2 -3 -3 -3 -2 -2 -2 -1 -1 -1 -2 -2 -1 -3 -4 -4 -3 -3 -4 -3 -3 -3 -4 -4 -5 -5 -5 -5 -5 -5 -5 -5 -5 -5 -5 -5 -5 -5 -5 -5 -5 -5 -5 -5 -4 -4 -4 -3 -3 -3 -4 -3 -2 -2 -3 -4 -4 -4 -3 -2 -1 1 2 1 -1 -2 -1 0 1 1 1 2 3 4 5 5 6 8 9 9 10 10 11 11 11 11 12 12 12 13 13 12 11 11 11 10 11 11 12 12 11 11 11 11 11 11 11 12 12 12 12 11 10 10 10 10 10 10 9 9 8 8 10 11 12 12 14 16 15 12 10 10 11 12 11 9 6 4 4 5 4 2 0 0 0 -1 0 1 2 2 2 3 4 4 4 4 4 5 3 2 1 0 -1 -1 0 1 1 3 3 4 5 6 7 7 8 9 8 7 7 7 6 5 6 7 6 6 6 6 6 7 7 7 7 6 5 6 6 6 6 7 8 8 8 8 9 9 8 8 9 9 10 9 10 12 13 14 15 14 14 13 12 13 14 14 13 13 12 12 13 13 13 14 15 15 15 15 16 17 16 16 17 17 18 19 20 19 19 19 19 19 18 17 18 18 18 17 17 17 16 16 16 17 17 17 17 17 17 17 17 17 17 17 17 16 15 13 13 14 14 14 14 14 15 13 12 12 13 13 13 14 14 15 16 16 15 14 13 13 13 13 15 16 17 16 13 11 10 11 10 8 8 9 10 11 12 14 14 13 13 14 14 14 13 11 10 10 9 8 8 9 10 10 10 12 12 11 10 12 14 13 10 10 11 11 10 9 8 7 7 7 8 10 11 11 11 11 12 13 13 12 12 11 11 11 11 11 12 13 14 14 14 15 15 14 13 13 13 13 13 13 13 13 15 16 16 17 17 17 18 19 20 22 24 27 28 29 30 31 29 28 28 29 28 28 27 26 26 26 25 25 25 24 21 20 19 18 17 16 16 14 14 15 15 15 16 15 16 16 16 16 15 13 11 9 8 9 11 12 13 13 13 12 11 10 10 9 9 8 7 5 4 3 3 3 5 6 7 7 7 7 9 10 10 10 9 7 7 8 9 11 14 15 14 13 13 14 13 12 12 11 9 8 8 8 7 6 5 4 4 5 4 3 2 4 7 8 9 9 7 6 5 5 5 5 5 5 5 4 4 5 4 2 2 1 1 2 3 3 3 2 2 4 5 6 6 7 8 8 8 8 8 8 0 0 -9 -9 -9 -9 -9 -9 -9 -9 -9 -9 -9 -9 -9 -9 -9 -9 -9 -9 -9 -9 -9 -9 -9 -9 -9 -9 -9 -9 -9 -9 -9 -9 -9 -9 -9 -9 -9 -9 -9 -9 -9 -9 -9 -9 -9 -9 -9 -9 -9 -9 -9 -9 -9 -9 -9 -9 -9 -9 -9 -9 -9 -9 -9 -9 -9 -9 -9 -9 -9 -9 -9 -9 -9 -9 -9 -9 -9 -9 -9 -9 -9 -9 -9 -9 -9 -9 -9 -9 -9 -9 -9 -9 -9 -9 -9 -9 -9 -9 -9 -9 -9 -9 -9 -9 -9 -9 -9 -9 -9 -9 -9 -9 -9 -9 -9 -9 -9 -9 -9 -9 -9 -9 -9 -9 -9 -9 -9 -9 -9 -9 -9 -9 -9 -9 -9 -9 -9 -9 -9 -9 -9 -9 -9 -9 -9 -9 -9 -9 -9 -9 -9 -9 -9 -9 -9 -9 -9 -9 -9 -9 -9 -9 -9 -9 -9 -9 -9 -9 -9 -9 -9 -9 -9 -9 -9 -9 -9 -9 -9 -9 -9 -9 -9 -9 -9 -9 -9 -9 -9 -9 -9 -9 -9 -9 -9 -9 -9 -9 -9 -9 -9 -9 -9 -9 -9 -9 -9 -9 -9 -9 -9 -9 -9 -9 -9 -9 -9 -9 -9 -9 -9 -9 -9 -9 -9 -9 -9 -9 -9 -9 -9 -9 -9 -9 -9 -9 -9 -9 -9 -9 -9 -9 -9 -9 -9 -9 -9 -9 -9 -9 -9 -9 -9 -9 -9 -9 -9 -9 -9 -9 -9 -9 -9 -9 -9 -9 -9 -9 -9 -9 -9 -9 -9 -9 -9 -9 -9 -9 -9 -9 -9 -9 -9 -9 -9 -9 -9 -9 -9 -9 -9 -9 -9 -9 -9 -9 -9 -9 -9 -9 -9 -9 -9 -9 -9 -9 -9 -9 -9 -9 -9 -9 -9 -9 -9 -9 -9 -9 -9 -9 -9 -9 -9 -9 -9 -9 -9 -9 -9 -9 -9 -9 -9 -9 -9 -9 -9 -9 -9 -9 -9 -9 -9 -9 -9 -9 -9 -9 -9 -9 -9 -9 -9 -9 -9 -9 -9 -9 -9 -9 -9 -9 -9 -9 -9 -9 -9 -9 -9 -9 -9 -9 -9 -9 -9 -9 -9 -9 -9 -9 -9 -9 -9 -9 -9 -9 -9 -9 -9 -9 -9 -9 -9 -9 -9 -9 -9 -9 -9 -9 -9 -9 -9 -9 -9 -9 -9 -9 -9 -9 -9 -9 -9 -9 -9 -9 -9 -9 -9 -9 -9 -9 -9 -9 -9 -9 -9 -9 -9 -9 -9 -9 -9 -9 -9 -9 -9 -9
-9 -9 -9 -9 -9 9 10 11 13 14 15 12 10 10 12 12 9 5 1 0 0 0 2 3 2 1 0 -1 0 1 0 0 -1 -1 -2 -1 -2 -2 -2 -3 -3 -2 -1 -2 -1 -1 -2 -2 -2 -2 -2 -2 -2 -3 -3 -3 -4 -3 -3 -3 -1 -1 0 0 1 1 -1 -3 -3 -4 -5 -4 -3 -1 -3 -5 -5 -5 -5 -5 -5 -5 -5 -5 -5 -5 -5 -5 -5 -5 -5 -5 -5 -5 -5 -5 -5 -5 -5 -5 -5 -1 -1 -2 -3 -3 -3 -3 -3 -3 -3 -3 -3 -3 -3 -2 -1 -1 -2 -3 -2 -1 0 -1 -1 0 1 2 3 5 6 7 7 7 8 10 11 11 11 11 13 14 15 14 12 10 10 9 9 8 9 10 10 11 11 11 10 11 11 11 11 11 10 9 9 9 9 10 10 11 10 9 9 9 9 9 10 10 9 10 11 11 10 9 9 9 9 11 12 12 10 5 1 1 1 1 0 0 1 0 0 1 2 1 2 3 5 5 5 5 5 4 3 3 2 1 0 -1 0 0 1 1 2 4 5 6 7 7 7 8 7 6 6 6 5 4 5 5 6 6 6 5 5 5 7 7 7 6 5 4 5 7 7 9 11 11 11 10 10 10 9 10 10 10 9 8 10 12 12 13 13 13 14 14 14 15 15 14 13 14 14 13 13 12 13 14 15 16 17 16 16 16 16 18 19 18 18 19 20 19 19 19 19 18 17 17 16 16 17 16 15 15 14 13 14 15 17 17 17 16 16 16 16 17 17 16 15 14 14 14 14 13 13 13 14 15 14 13 12 12 13 13 13 14 15 16 17 17 16 16 15 14 13 12 13 14 14 13 12 12 10 10 10 9 10 11 12 13 14 15 15 14 15 14 13 12 11 10 9 9 9 8 9 10 9 9 10 14 16 17 16 16 15 15 16 15 15 14 12 10 9 9 9 7 7 9 10 10 11 12 13 13 12 11 12 12 13 12 11 11 11 11 12 13 14 15 15 15 14 14 13 12 12 13 15 15 16 18 18 19 20 19 19 20 20 22 23 24 25 25 26 26 26 25 25 25 25 25 25 24 24 23 22 21 20 20 20 17 16 16 14 12 10 10 11 11 11 12 13 13 12 12 12 11 11 11 11 10 10 11 12 11 11 10 9 9 9 9 9 9 9 9 10 8 5 3 3 3 4 4 5 5 4 5 5 6 7 8 8 7 8 8 9 9 10 11 12 13 12 11 11 11 10 9 8 7 7 8 9 7 5 3 2 1 2 2 3 5 8 9 10 9 10 10 9 7 6 5 4 4 3 3 4 4 3 2 1 0 0 1 2 2 2 3 4 5 6 6 6 7 7 7 8 8 8 8 0 0 -9 -9 -9 -9 -9 -9 -9 -9 -9 -9 -9 -9 -9 -9 -9 -9 -9 -9 -9 -9 -9 -9 -9 -9 -9 -9 -9 -9 -9 -9 -9 -9 -9 -9 -9 -9 -9 -9 -9 -9 -9 -9 -9 -9 -9 -9 -9 -9 -9 -9 -9 -9 -9 -9 -9 -9 -9 -9 -9 -9 -9 -9 -9 -9 -9 -9 -9 -9 -9 -9 -9 -9 -9 -9 -9 -9 -9 -9 -9 -9 -9 -9 -9 -9 -9 -9 -9 -9 -9 -9 -9 -9 -9 -9 -9 -9 -9 -9 -9 -9 -9 -9 -9 -9 -9 -9 -9 -9 -9 -9 -9 -9 -9 -9 -9 -9 -9 -9 -9 -9 -9 -9 -9 -9 -9 -9 -9 -9 -9 -9 -9 -9 -9 -9 -9 -9 -9 -9 -9 -9 -9 -9 -9 -9 -9 -9 -9 -9 -9 -9 -9 -9 -9 -9 -9 -9 -9 -9 -9 -9 -9 -9 -9 -9 -9 -9 -9 -9 -9 -9 -9 -9 -9 -9 -9 -9 -9 -9 -9 -9 -9 -9 -9 -9 -9 -9 -9 -9 -9 -9 -9 -9 -9 -9 -9 -9 -9 -9 -9 -9 -9 -9 -9 -9 -9 -9 -9 -9 -9 -9 -9 -9 -9 -9 -9 -9 -9 -9 -9 -9 -9 -9 -9 -9 -9 -9 -9 -9 -9 -9 -9 -9 -9 -9 -9 -9 -9 -9 -9 -9 -9 -9 -9 -9 -9 -9 -9 -9 -9 -9 -9 -9 -9 -9 -9 -9 -9 -9 -9 -9 -9 -9 -9 -9 -9 -9 -9 -9 -9 -9 -9 -9 -9 -9 -9 -9 -9 -9 -9 -9 -9 -9 -9 -9 -9 -9 -9 -9 -9 -9 -9 -9 -9 -9 -9 -9 -9 -9 -9 -9 -9 -9 -9 -9 -9 -9 -9 -9 -9 -9 -9 -9 -9 -9 -9 -9 -9 -9 -9 -9 -9 -9 -9 -9 -9 -9 -9 -9 -9 -9 -9 -9 -9 -9 -9 -9 -9 -9 -9 -9 -9 -9 -9 -9 -9 -9 -9 -9 -9 -9 -9 -9 -9 -9 -9 -9 -9 -9 -9 -9 -9 -9 -9 -9 -9 -9 -9 -9 -9 -9 -9 -9 -9 -9 -9 -9 -9 -9 -9 -9 -9 -9 -9 -9 -9 -9 -9 -9 -9 -9 -9 -9 -9 -9 -9 -9 -9 -9 -9 -9 -9 -9 -9 -9 -9 -9 -9 -9 -9 -9 -9 -9 -9 -9 -9 -9 -9 -9 -9 -9 -9 -9 -9 -9 -9 -9 -9 -9 -9 -9 -9 -9 -9 -9 -9 -9 -9 -9
-9 -9 -9 -9 -9 5 4 3 6 11 14 15 15 15 14 13 13 11 8 6 6 5 5 5 4 1 -1 -1 0 0 -2 -2 -2 -1 -2 -2 -2 -2 -2 -2 -2 0 1 2 4 5 4 2 0 -1 -2 -2 -2 -3 -2 -2 -3 -2 -2 -2 -2 0 -1 -2 -2 -1 -2 -3 -4 -5 -5 -4 -3 -5 -5 -5 -5 -5 -5 -5 -5 -5 -5 -5 -5 -5 -5 -5 -5 -5 -5 -5 -5 -5 -5 -5 -5 -5 -5 -5 -5 -5 -5 -5 -3 -4 -4 -3 -3 -2 -2 -2 -2 -3 -3 -2 -2 -2 -3 -3 -4 -3 -1 0 1 1 0 1 2 3 4 4 5 8 9 10 10 10 10 11 11 14 15 13 11 10 9 9 9 8 8 8 9 9 10 9 8 9 9 9 9 8 8 8 9 10 10 10 10 10 10 9 10 12 14 13 11 11 11 11 10 11 10 9 9 9 9 9 9 7 5 3 1 0 -1 0 0 -1 -1 0 1 2 2 2 3 4 5 6 5 5 5 4 3 2 3 3 3 1 0 -1 -1 -1 -1 0 2 4 5 5 5 5 4 2 1 1 1 2 3 4 4 5 6 5 6 6 7 6 7 6 5 5 6 6 7 8 11 12 11 10 10 10 10 11 11 10 10 9 11 12 11 12 13 12 12 12 14 15 15 14 13 13 12 12 13 14 15 16 16 16 15 14 14 15 15 15 17 18 18 18 17 17 16 16 16 16 16 17 16 15 15 15 14 14 14 14 15 16 15 15 15 15 13 13 14 14 15 14 14 14 14 14 13 13 13 13 14 14 13 12 12 13 13 14 15 16 17 18 18 17 17 17 16 14 13 12 12 11 11 11 10 10 10 9 9 9 11 12 14 14 15 16 16 15 14 13 12 11 11 10 9 10 11 12 12 11 10 10 12 13 14 14 14 13 14 15 15 14 12 12 11 11 9 8 8 8 8 9 9 9 10 12 14 15 14 13 14 14 13 12 12 12 11 12 13 14 14 15 14 15 15 15 13 12 12 13 15 16 17 18 18 19 19 20 20 20 20 20 20 21 21 21 21 20 20 20 20 21 21 21 21 20 19 18 19 20 23 23 20 15 14 12 10 9 8 7 6 6 7 8 8 8 8 8 7 7 9 10 11 11 11 11 9 8 7 7 6 6 7 8 7 6 6 6 7 7 6 6 5 4 5 5 6 5 4 4 6 8 9 9 9 10 10 10 11 12 12 11 12 11 11 11 11 11 12 13 13 11 11 10 9 7 5 3 2 2 1 1 3 6 8 10 11 11 11 11 11 9 8 7 6 5 6 6 5 4 3 1 0 0 1 1 1 2 2 3 4 5 5 5 6 6 6 7 8 8 7 6 0 0 -9 -9 -9 -9 -9 -9 -9 -9 -9 -9 -9 -9 -9 -9 -9 -9 -9 -9 -9 -9 -9 -9 -9 -9 -9 -9 -9 -9 -9 -9 -9 -9 -9 -9 -9 -9 -9 -9 -9 -9 -9 -9 -9 -9 -9 -9 -9 -9 -9 -9 -9 -9 -9 -9 -9 -9 -9 -9 -9 -9 -9 -9 -9 -9 -9 -9 -9 -9 -9 -9 -9 -9 -9 -9 -9 -9 -9 -9 -9 -9 -9 -9 -9 -9 -9 -9 -9 -9 -9 -9 -9 -9 -9 -9 -9 -9 -9 -9 -9 -9 -9 -9 -9 -9 -9 -9 -9 -9 -9 -9 -9 -9 -9 -9 -9 -9 -9 -9 -9 -9 -9 -9 -9 -9 -9 -9 -9 -9 -9 -9 -9 -9 -9 -9 -9 -9 -9 -9 -9 -9 -9 -9 -9 -9 -9 -9 -9 -9 -9 -9 -9 -9 -9 -9 -9 -9 -9 -9 -9 -9 -9 -9 -9 -9 -9 -9 -9 -9 -9 -9 -9 -9 -9 -9 -9 -9 -9 -9 -9 -9 -9 -9 -9 -9 -9 -9 -9 -9 -9 -9 -9 -9 -9 -9 -9 -9 -9 -9 -9 -9 -9 -9 -9 -9 -9 -9 -9 -9 -9 -9 -9 -9 -9 -9 -9 -9 -9 -9 -9 -9 -9 -9 -9 -9 -9 -9 -9 -9 -9 -9 -9 -9 -9 -9 -9 -9 -9 -9 -9 -9 -9 -9 -9 -9 -9 -9 -9 -9 -9 -9 -9 -9 -9 -9 -9 -9 -9 -9 -9 -9 -9 -9 -9 -9 -9 -9 -9 -9 -9 -9 -9 -9 -9 -9 -9 -9 -9 -9 -9 -9 -9 -9 -9 -9 -9 -9 -9 -9 -9 -9 -9 -9 -9 -9 -9 -9 -9 -9 -9 -9 -9 -9 -9 -9 -9 -9 -9 -9 -9 -9 -9 -9 -9 -9 -9 -9 -9 -9 -9 -9 -9 -9 -9 -9 -9 -9 -9 -9 -9 -9 -9 -9 -9 -9 -9 -9 -9 -9 -9 -9 -9 -9 -9 -9 -9 -9 -9 -9 -9 -9 -9 -9 -9 -9 -9 -9 -9 -9 -9 -9 -9 -9 -9 -9 -9 -9 -9 -9 -9 -9 -9 -9 -9 -9 -9 -9 -9 -9 -9 -9 -9 -9 -9 -9 -9 -9 -9 -9 -9 -9 -9 -9 -9 -9 -9 -9 -9 -9 -9 -9 -9 -9 -9 -9 -9 -9 -9 -9 -9 -9 -9 -9 -9 -9 -9 -9 -9 -9 -9 -9 -9 -9 -9 -9 -9 -9 -9 -9 -9 -9 -9 -9 -9 -9 -9 -9 -9 -9
-9 -9 -9 -9 -9 4 3 2 4 9 15 17 17 15 13 11 10 11 10 10 10 9 8 9 7 2 1 0 -1 -1 -2 -2 -2 -1 -1 -2 -2 -2 -2 -2 -1 1 2 2 3 4 4 4 3 1 -1 -2 -2 -3 -2 -2 -3 -2 -2 -2 -3 -1 -1 -3 -3 -3 -2 -3 -4 -4 -4 -4 -4 -4 -4 -5 -5 -5 -5 -5 -5 -5 -5 -5 -5 -5 -5 -5 -5 -5 -5 -5 -5 -5 -5 -5 -5 -5 -5 -5 -5 -5 -5 -5 -5 -4 -4 -2 -2 -3 -3 -3 -3 -3 -3 -3 -3 -3 -3 -3 -4 -3 0 2 3 2 1 1 2 3 3 5 6 8 9 8 9 9 9 10 10 13 13 11 9 9 9 9 9 8 9 9 9 9 10 9 8 8 9 9 9 8 8 10 11 11 10 9 10 10 10 10 11 13 15 13 11 11 12 12 11 13 13 11 11 11 9 8 7 4 3 2 2 0 -1 0 1 0 0 1 2 2 2 3 4 5 5 5 5 5 5 4 3 2 2 4 3 2 1 0 0 -1 -1 -1 1 4 5 4 4 4 3 1 0 0 0 2 3 4 4 5 5 6 6 7 8 7 7 6 5 5 6 5 6 8 10 12 10 9 9 9 9 10 10 9 8 9 11 12 11 11 12 12 11 11 13 15 15 14 13 13 12 12 13 14 15 16 16 15 14 13 14 15 15 15 16 17 17 17 17 16 15 15 15 15 15 16 16 15 14 14 14 13 14 14 14 14 14 13 13 13 13 12 12 13 14 13 13 14 13 13 13 12 11 12 13 13 12 12 13 14 14 15 16 17 18 19 19 18 18 18 16 14 12 11 10 10 10 11 10 10 10 10 10 10 11 13 15 15 15 16 15 13 12 11 11 11 12 11 11 11 12 12 12 11 11 11 12 13 12 13 13 12 12 13 14 12 11 10 11 11 10 8 8 8 8 8 8 8 10 11 13 14 15 14 14 15 14 13 12 12 12 13 14 14 14 14 13 13 14 14 13 12 12 13 14 16 16 16 17 18 18 18 18 19 19 19 19 19 19 19 19 19 18 17 17 18 18 19 20 18 17 16 16 17 20 20 17 14 12 9 8 8 7 7 6 6 6 7 7 6 7 7 6 6 8 9 10 11 11 10 8 7 6 5 5 6 7 8 6 5 5 6 7 7 6 6 5 5 5 6 7 6 5 5 6 8 10 10 10 10 10 10 10 12 11 11 11 11 11 11 11 11 11 12 13 11 11 9 8 6 4 3 2 1 1 1 3 5 8 9 10 11 10 10 10 9 8 7 5 4 4 5 4 3 2 1 0 -1 -1 0 1 1 1 2 3 4 5 6 7 6 6 7 8 7 7 6 5 0 0 -9 -9 -9 -9 -9 -9 -9 -9 -9 -9 -9 -9 -9 -9 -9 -9 -9 -9 -9 -9 -9 -9 -9 -9 -9 -9 -9 -9 -9 -9 -9 -9 -9 -9 -9 -9 -9 -9 -9 -9 -9 -9 -9 -9 -9 -9 -9 -9 -9 -9 -9 -9 -9 -9 -9 -9 -9 -9 -9 -9 -9 -9 -9 -9 -9 -9 -9 -9 -9 -9 -9 -9 -9 -9 -9 -9 -9 -9 -9 -9 -9 -9 -9 -9 -9 -9 -9 -9 -9 -9 -9 -9 -9 -9 -9 -9 -9 -9 -9 -9 -9 -9 -9 -9 -9 -9 -9 -9 -9 -9 -9 -9 -9 -9 -9 -9 -9 -9 -9 -9 -9 -9 -9 -9 -9 -9 -9 -9 -9 -9 -9 -9 -9 -9 -9 -9 -9 -9 -9 -9 -9 -9 -9 -9 -9 -9 -9 -9 -9 -9 -9 -9 -9 -9 -9 -9 -9 -9 -9 -9 -9 -9 -9 -9 -9 -9 -9 -9 -9 -9 -9 -9 -9 -9 -9 -9 -9 -9 -9 -9 -9 -9 -9 -9 -9 -9 -9 -9 -9 -9 -9 -9 -9 -9 -9 -9 -9 -9 -9 -9 -9 -9 -9 -9 -9 -9 -9 -9 -9 -9 -9 -9 -9 -9 -9 -9 -9 -9 -9 -9 -9 -9 -9 -9 -9 -9 -9 -9 -9 -9 -9 -9 -9 -9 -9 -9 -9 -9 -9 -9 -9 -9 -9 -9 -9 -9 -9 -9 -9 -9 -9 -9 -9 -9 -9 -9 -9 -9 -9 -9 -9 -9 -9 -9 -9 -9 -9 -9 -9 -9 -9 -9 -9 -9 -9 -9 -9 -9 -9 -9 -9 -9 -9 -9 -9 -9 -9 -9 -9 -9 -9 -9 -9 -9 -9 -9 -9 -9 -9 -9 -9 -9 -9 -9 -9 -9 -9 -9 -9 -9 -9 -9 -9 -9 -9 -9 -9 -9 -9 -9 -9 -9 -9 -9 -9 -9 -9 -9 -9 -9 -9 -9 -9 -9 -9 -9 -9 -9 -9 -9 -9 -9 -9 -9 -9 -9 -9 -9 -9 -9 -9 -9 -9 -9 -9 -9 -9 -9 -9 -9 -9 -9 -9 -9 -9 -9 -9 -9 -9 -9 -9 -9 -9 -9 -9 -9 -9 -9 -9 -9 -9 -9 -9 -9 -9 -9 -9 -9 -9 -9 -9 -9 -9 -9 -9 -9 -9 -9 -9 -9 -9 -9 -9 -9 -9 -9 -9 -9 -9 -9 -9 -9 -9 -9 -9 -9 -9 -9 -9 -9 -9 -9 -9 -9 -9 -9 -9 -9 -9 -9 -9 -9 -9 -9 -9 -9 -9
-9 -9 -9 -9 -9 5 4 4 6 10 15 17 16 14 12 11 10 9 9 10 12 13 13 14 10 3 1 1 0 -1 -1 -3 -3 -2 -3 -2 -2 -2 -2 -2 -2 -1 0 1 1 0 0 0 1 1 1 1 2 1 0 -1 -2 -3 -3 -3 -3 -2 -1 -1 -2 -2 -2 -2 -2 -3 -4 -4 -4 -4 -4 -4 -5 -5 -5 -5 -5 -5 -5 -5 -5 -5 -5 -5 -5 -5 -5 -5 -5 -5 -5 -5 -5 -5 -5 -5 -5 -5 -5 -5 -5 -5 -4 -3 -3 -3 -3 -3 -3 -4 -4 -5 -4 -3 -2 -3 -3 -3 0 3 4 5 3 2 2 2 3 5 6 6 7 6 5 4 3 2 1 3 4 5 5 5 5 5 5 5 6 7 6 7 8 9 9 10 10 9 9 8 9 11 12 12 11 10 10 10 11 11 11 12 13 12 12 12 12 12 11 11 11 11 12 11 9 8 6 4 2 1 1 0 0 1 1 2 3 4 5 6 5 5 5 6 6 6 5 4 4 4 4 4 4 4 4 2 1 0 -1 -2 -2 0 2 3 2 2 2 2 1 1 0 -1 0 2 4 5 4 5 5 5 5 7 8 7 6 6 4 5 6 7 7 8 9 10 10 10 9 9 9 9 8 8 8 10 11 12 11 12 12 11 10 10 11 14 15 14 14 14 13 13 13 14 15 15 14 14 15 15 15 15 16 16 15 16 16 16 16 16 16 15 14 13 13 14 14 14 13 13 13 13 12 13 13 14 13 12 12 13 14 14 13 12 12 12 12 12 12 11 12 11 11 11 11 11 10 11 12 13 14 16 18 19 20 20 20 19 18 16 13 12 11 11 14 14 13 13 11 10 10 9 9 10 12 14 15 15 15 15 14 12 11 11 12 12 11 11 11 10 11 12 12 11 12 10 9 9 9 9 10 11 12 12 11 10 9 9 9 11 11 11 10 9 9 9 10 10 11 11 12 12 13 14 14 14 14 15 16 16 15 15 16 17 17 15 14 14 13 13 12 11 10 11 12 13 14 15 15 15 15 15 16 17 17 17 17 18 19 19 19 17 16 15 15 15 16 17 17 18 17 14 11 10 10 10 10 8 7 7 7 8 9 10 10 9 8 7 7 7 8 8 8 9 10 10 10 10 9 8 8 7 5 4 4 4 5 6 6 5 5 6 6 6 6 7 6 6 6 6 7 8 8 8 7 6 7 8 9 9 10 11 11 11 10 10 11 11 11 10 11 10 9 9 10 11 11 9 6 4 3 2 2 3 2 1 1 3 6 9 10 10 9 9 9 7 6 4 2 2 2 2 1 0 0 0 -2 -3 -3 -1 0 1 1 1 1 2 3 4 5 5 5 6 7 6 5 4 2 0 0 -9 -9 -9 -9 -9 -9 -9 -9 -9 -9 -9 -9 -9 -9 -9 -9 -9 -9 -9 -9 -9 -9 -9 -9 -9 -9 -9 -9 -9 -9 -9 -9 -9 -9 -9 -9 -9 -9 -9 -9 -9 -9 -9 -9 -9 -9 -9 -9 -9 -9 -9 -9 -9 -9 -9 -9 -9 -9 -9 -9 -9 -9 -9 -9 -9 -9 -9 -9 -9 -9 -9 -9 -9 -9 -9 -9 -9 -9 -9 -9 -9 -9 -9 -9 -9 -9 -9 -9 -9 -9 -9 -9 -9 -9 -9 -9 -9 -9 -9 -9 -9 -9 -9 -9 -9 -9 -9 -9 -9 -9 -9 -9 -9 -9 -9 -9 -9 -9 -9 -9 -9 -9 -9 -9 -9 -9 -9 -9 -9 -9 -9 -9 -9 -9 -9 -9 -9 -9 -9 -9 -9 -9 -9 -9 -9 -9 -9 -9 -9 -9 -9 -9 -9 -9 -9 -9 -9 -9 -9 -9 -9 -9 -9 -9 -9 -9 -9 -9 -9 -9 -9 -9 -9 -9 -9 -9 -9 -9 -9 -9 -9 -9 -9 -9 -9 -9 -9 -9 -9 -9 -9 -9 -9 -9 -9 -9 -9 -9 -9 -9 -9 -9 -9 -9 -9 -9 -9 -9 -9 -9 -9 -9 -9 -9 -9 -9 -9 -9 -9 -9 -9 -9 -9 -9 -9 -9 -9 -9 -9 -9 -9 -9 -9 -9 -9 -9 -9 -9 -9 -9 -9 -9 -9 -9 -9 -9 -9 -9 -9 -9 -9 -9 -9 -9 -9 -9 -9 -9 -9 -9 -9 -9 -9 -9 -9 -9 -9 -9 -9 -9 -9 -9 -9 -9 -9 -9 -9 -9 -9 -9 -9 -9 -9 -9 -9 -9 -9 -9 -9 -9 -9 -9 -9 -9 -9 -9 -9 -9 -9 -9 -9 -9 -9 -9 -9 -9 -9 -9 -9 -9 -9 -9 -9 -9 -9 -9 -9 -9 -9 -9 -9 -9 -9 -9 -9 -9 -9 -9 -9 -9 -9 -9 -9 -9 -9 -9 -9 -9 -9 -9 -9 -9 -9 -9 -9 -9 -9 -9 -9 -9 -9 -9 -9 -9 -9 -9 -9 -9 -9 -9 -9 -9 -9 -9 -9 -9 -9 -9 -9 -9 -9 -9 -9 -9 -9 -9 -9 -9 -9 -9 -9 -9 -9 -9 -9 -9 -9 -9 -9 -9 -9 -9 -9 -9 -9 -9 -9 -9 -9 -9 -9 -9 -9 -9 -9 -9 -9 -9 -9 -9 -9 -9 -9 -9 -9 -9 -9 -9 -9 -9 -9 -9 -9 -9 -9 -9 -9 -9 -9 -9 -9 -9 -9 -9 -9 -9 -9
-9 -9 -9 -9 -9 7 6 7 10 16 20 20 17 15 14 13 11 8 8 9 10 11 12 13 10 3 0 0 -1 -1 0 0 -1 -2 -2 -2 -2 -2 -2 -2 -1 -2 -2 -1 -1 0 -1 -1 -1 -1 -2 -1 0 0 -1 -1 -2 -3 -3 -2 -1 -1 -2 -2 -3 -2 -2 -2 -2 -1 -2 -3 -4 -4 -4 -3 -3 -4 -5 -5 -5 -5 -5 -5 -5 -5 -5 -5 -5 -5 -5 -5 -5 -5 -5 -5 -5 -5 -5 -5 -5 -5 -5 -5 -5 -5 -5 -4 -4 -3 -4 -4 -3 -3 -3 -3 -3 -3 -3 -3 -4 -3 0 2 4 5 3 2 2 3 3 2 2 2 1 0 -1 -1 -1 -2 -1 -1 0 3 5 5 5 5 5 5 5 6 6 6 8 9 10 10 9 8 9 9 8 9 10 11 12 13 12 11 11 10 10 11 12 10 10 11 13 14 12 9 7 6 7 7 7 6 5 5 4 3 3 3 3 3 2 4 5 6 7 8 8 7 7 8 9 7 5 3 4 4 5 5 4 4 4 3 2 1 0 0 0 -1 -1 0 0 -1 -1 0 0 0 0 1 3 5 6 5 5 6 5 4 4 5 5 6 5 5 5 5 8 10 10 11 10 10 9 8 9 9 10 10 9 8 8 9 10 10 11 13 14 13 12 13 14 14 14 14 13 12 14 15 15 15 15 15 14 14 14 14 13 14 14 14 15 14 14 15 15 14 15 15 14 13 13 13 13 12 12 13 12 12 11 12 13 13 12 13 13 14 14 14 16 14 12 11 12 12 12 12 12 11 9 9 8 9 11 12 12 12 12 14 17 19 20 20 20 21 19 18 17 16 16 16 18 18 17 15 13 12 11 10 10 12 14 15 15 14 14 13 13 13 12 12 12 12 11 11 10 10 11 12 12 12 11 10 10 10 11 12 12 12 13 13 13 11 10 9 9 9 10 10 10 10 9 8 9 9 10 11 10 12 13 14 13 13 13 16 18 19 18 18 18 18 16 15 14 14 14 14 13 12 11 11 12 12 12 13 12 12 12 13 14 16 16 17 17 18 19 18 17 17 17 16 15 15 16 17 17 17 16 14 12 10 7 6 7 7 6 6 8 10 9 10 11 11 11 10 8 8 7 7 8 9 9 8 8 8 8 7 6 6 5 6 5 6 6 6 5 6 6 6 5 6 7 7 7 8 9 9 9 10 11 9 7 6 6 6 7 8 9 10 10 12 12 12 11 10 10 11 12 10 8 8 9 9 9 7 4 3 2 1 1 1 1 1 1 3 6 8 9 10 10 9 8 6 4 3 2 2 2 1 1 0 0 0 -1 -1 -1 -1 0 0 0 0 0 1 2 2 1 1 2 3 3 2 2 0 -1 0 0 0 -9 -9 -9 -9 -9 -9 -9 -9 -9 -9 -9 -9 -9 -9 -9 -9 -9 -9 -9 -9 -9 -9 -9 -9 -9 -9 -9 -9 -9 -9 -9 -9 -9 -9 -9 -9 -9 -9 -9 -9 -9 -9 -9 -9 -9 -9 -9 -9 -9 -9 -9 -9 -9 -9 -9 -9 -9 -9 -9 -9 -9 -9 -9 -9 -9 -9 -9 -9 -9 -9 -9 -9 -9 -9 -9 -9 -9 -9 -9 -9 -9 -9 -9 -9 -9 -9 -9 -9 -9 -9 -9 -9 -9 -9 -9 -9 -9 -9 -9 -9 -9 -9 -9 -9 -9 -9 -9 -9 -9 -9 -9 -9 -9 -9 -9 -9 -9 -9 -9 -9 -9 -9 -9 -9 -9 -9 -9 -9 -9 -9 -9 -9 -9 -9 -9 -9 -9 -9 -9 -9 -9 -9 -9 -9 -9 -9 -9 -9 -9 -9 -9 -9 -9 -9 -9 -9 -9 -9 -9 -9 -9 -9 -9 -9 -9 -9 -9 -9 -9 -9 -9 -9 -9 -9 -9 -9 -9 -9 -9 -9 -9 -9 -9 -9 -9 -9 -9 -9 -9 -9 -9 -9 -9 -9 -9 -9 -9 -9 -9 -9 -9 -9 -9 -9 -9 -9 -9 -9 -9 -9 -9 -9 -9 -9 -9 -9 -9 -9 -9 -9 -9 -9 -9 -9 -9 -9 -9 -9 -9 -9 -9 -9 -9 -9 -9 -9 -9 -9 -9 -9 -9 -9 -9 -9 -9 -9 -9 -9 -9 -9 -9 -9 -9 -9 -9 -9 -9 -9 -9 -9 -9 -9 -9 -9 -9 -9 -9 -9 -9 -9 -9 -9 -9 -9 -9 -9 -9 -9 -9 -9 -9 -9 -9 -9 -9 -9 -9 -9 -9 -9 -9 -9 -9 -9 -9 -9 -9 -9 -9 -9 -9 -9 -9 -9 -9 -9 -9 -9 -9 -9 -9 -9 -9 -9 -9 -9 -9 -9 -9 -9 -9 -9 -9 -9 -9 -9 -9 -9 -9 -9 -9 -9 -9 -9 -9 -9 -9 -9 -9 -9 -9 -9 -9 -9 -9 -9 -9 -9 -9 -9 -9 -9 -9 -9 -9 -9 -9 -9 -9 -9 -9 -9 -9 -9 -9 -9 -9 -9 -9 -9 -9 -9 -9 -9 -9 -9 -9 -9 -9 -9 -9 -9 -9 -9 -9 -9 -9 -9 -9 -9 -9 -9 -9 -9 -9 -9 -9 -9 -9 -9 -9 -9 -9 -9 -9 -9 -9 -9 -9 -9 -9 -9 -9 -9 -9 -9 -9 -9 -9 -9 -9 -9 -9 -9 -9 -9 -9 -9 -9 -9 -9 -9 -9 -9 -9 -9
-9 -9 -9 -9 -9 22 22 22 22 23 24 25 25 24 20 15 11 9 8 9 9 9 11 10 6 2 0 1 1 0 1 1 0 -1 -1 -2 -2 -2 -2 -2 -1 -2 -3 -4 -3 -2 -2 -1 -1 -1 -2 -2 -2 -1 -1 -2 -2 -2 -3 -3 -2 -2 -2 -3 -3 -2 -2 -3 -3 -3 -2 -2 -3 -4 -4 -3 -3 -3 -3 -4 -4 -5 -5 -5 -5 -5 -4 -5 -5 -4 -4 -5 -5 -5 -5 -5 -5 -5 -5 -5 -5 -5 -5 -5 -5 -4 -3 -4 -5 -4 -4 -4 -3 -3 -2 -3 -4 -4 -4 -4 -3 -2 -1 0 2 2 0 -2 -1 -1 -1 0 0 -1 -2 -2 -2 -1 0 0 1 2 4 7 7 7 7 7 7 6 6 7 6 5 6 7 8 8 8 9 9 9 9 10 11 12 13 13 12 11 10 9 10 10 11 11 10 9 10 11 9 7 6 6 6 6 5 5 6 6 5 4 3 3 3 2 2 3 4 4 6 7 8 8 7 7 7 6 5 4 4 5 6 6 6 5 4 3 3 1 -1 0 0 0 -1 -2 -1 -1 -2 -2 -1 0 1 2 4 5 5 5 6 7 6 5 4 4 4 5 6 6 6 7 9 9 10 10 10 9 8 8 9 9 10 10 10 10 10 11 10 11 11 13 15 15 14 13 12 13 12 13 14 14 14 15 16 16 14 14 16 16 16 14 13 14 14 14 14 14 14 14 14 13 12 13 13 13 13 12 12 12 12 13 13 12 13 13 14 14 14 15 16 15 15 16 17 15 14 14 14 15 13 13 12 12 11 11 12 11 11 11 11 11 11 13 16 18 19 20 20 20 20 20 21 22 22 19 18 16 14 13 12 13 12 12 12 12 12 13 13 12 12 14 14 12 11 11 11 10 9 10 11 11 10 9 9 10 11 12 12 13 13 13 12 11 11 12 11 9 9 9 9 9 9 9 9 9 9 9 9 9 9 10 10 11 12 12 13 15 15 15 16 17 17 16 16 17 17 16 15 14 14 14 12 10 10 10 12 12 11 11 11 12 12 13 14 15 15 16 17 17 17 16 15 15 15 14 13 14 15 16 17 17 16 15 13 12 10 8 7 7 8 7 7 8 9 9 10 10 9 8 8 7 6 6 7 7 7 7 8 8 7 6 6 5 7 8 8 8 7 7 7 7 7 7 6 6 7 7 8 9 10 11 10 9 9 9 9 9 9 7 6 6 7 7 8 9 11 12 11 11 12 13 12 10 9 9 9 8 8 6 4 2 2 3 4 4 4 4 3 4 5 6 8 9 8 7 7 5 4 3 2 2 1 1 0 0 0 0 0 0 0 -1 -1 0 0 1 2 2 3 4 3 2 2 3 4 3 3 2 1 0 0 0 -9 -9 -9 -9 -9 -9 -9 -9 -9 -9 -9 -9 -9 -9 -9 -9 -9 -9 -9 -9 -9 -9 -9 -9 -9 -9 -9 -9 -9 -9 -9 -9 -9 -9 -9 -9 -9 -9 -9 -9 -9 -9 -9 -9 -9 -9 -9 -9 -9 -9 -9 -9 -9 -9 -9 -9 -9 -9 -9 -9 -9 -9 -9 -9 -9 -9 -9 -9 -9 -9 -9 -9 -9 -9 -9 -9 -9 -9 -9 -9 -9 -9 -9 -9 -9 -9 -9 -9 -9 -9 -9 -9 -9 -9 -9 -9 -9 -9 -9 -9 -9 -9 -9 -9 -9 -9 -9 -9 -9 -9 -9 -9 -9 -9 -9 -9 -9 -9 -9 -9 -9 -9 -9 -9 -9 -9 -9 -9 -9 -9 -9 -9 -9 -9 -9 -9 -9 -9 -9 -9 -9 -9 -9 -9 -9 -9 -9 -9 -9 -9 -9 -9 -9 -9 -9 -9 -9 -9 -9 -9 -9 -9 -9 -9 -9 -9 -9 -9 -9 -9 -9 -9 -9 -9 -9 -9 -9 -9 -9 -9 -9 -9 -9 -9 -9 -9 -9 -9 -9 -9 -9 -9 -9 -9 -9 -9 -9 -9 -9 -9 -9 -9 -9 -9 -9 -9 -9 -9 -9 -9 -9 -9 -9 -9 -9 -9 -9 -9 -9 -9 -9 -9 -9 -9 -9 -9 -9 -9 -9 -9 -9 -9 -9 -9 -9 -9 -9 -9 -9 -9 -9 -9 -9 -9 -9 -9 -9 -9 -9 -9 -9 -9 -9 -9 -9 -9 -9 -9 -9 -9 -9 -9 -9 -9 -9 -9 -9 -9 -9 -9 -9 -9 -9 -9 -9 -9 -9 -9 -9 -9 -9 -9 -9 -9 -9 -9 -9 -9 -9 -9 -9 -9 -9 -9 -9 -9 -9 -9 -9 -9 -9 -9 -9 -9 -9 -9 -9 -9 -9 -9 -9 -9 -9 -9 -9 -9 -9 -9 -9 -9 -9 -9 -9 -9 -9 -9 -9 -9 -9 -9 -9 -9 -9 -9 -9 -9 -9 -9 -9 -9 -9 -9 -9 -9 -9 -9 -9 -9 -9 -9 -9 -9 -9 -9 -9 -9 -9 -9 -9 -9 -9 -9 -9 -9 -9 -9 -9 -9 -9 -9 -9 -9 -9 -9 -9 -9 -9 -9 -9 -9 -9 -9 -9 -9 -9 -9 -9 -9 -9 -9 -9 -9 -9 -9 -9 -9 -9 -9 -9 -9 -9 -9 -9 -9 -9 -9 -9 -9 -9 -9 -9 -9 -9 -9 -9 -9 -9 -9 -9 -9 -9 -9 -9 -9 -9 -9 -9 -9 -9 -9 -9 -9 -9 -9 -9 -9
-9 -9 -9 -9 -9 23 21 18 16 16 16 19 22 23 21 17 14 12 10 9 9 9 9 8 6 5 3 3 3 2 2 1 0 0 1 2 2 1 0 -1 -1 -2 -3 -2 -1 -2 -3 -2 -2 -2 -2 -3 -3 -2 -2 -2 -2 -3 -3 -2 -2 -3 -4 -4 -4 -2 0 2 2 4 6 5 1 -2 -2 -2 -3 -4 -3 -4 -3 -2 -2 -3 -4 -3 -3 -3 -2 -3 -4 -4 -5 -5 -5 -4 -4 -4 -4 -4 -4 -4 -4 -4 -4 -3 -3 -4 -5 -5 -4 -4 -3 -3 -3 -3 -4 -3 -3 -3 -1 1 2 0 -2 -3 -4 -4 -3 -2 -2 -3 -3 -3 -3 -2 -1 0 3 4 4 5 7 7 7 7 6 6 6 6 6 6 6 5 6 6 7 8 8 8 8 8 8 9 10 10 11 11 11 10 10 10 9 9 10 10 10 10 9 9 9 8 8 7 7 7 7 7 8 8 8 8 7 5 4 4 3 2 3 3 4 5 6 7 7 7 6 5 4 4 4 4 5 6 5 5 3 2 1 1 1 1 1 0 -1 -2 -2 -2 -3 -2 -1 -1 0 1 3 5 6 6 7 7 6 5 4 3 4 5 6 7 8 8 8 9 9 10 10 9 10 10 10 10 9 11 12 13 12 12 11 10 11 13 14 15 15 14 14 14 13 13 13 15 15 15 16 20 22 21 20 18 16 15 13 13 13 14 13 13 13 13 12 11 11 11 12 13 13 13 13 12 12 13 13 14 16 16 15 15 15 15 16 16 16 16 16 16 17 18 17 17 17 17 16 16 15 15 15 16 15 14 14 13 13 12 14 15 16 17 17 18 18 19 20 21 20 17 14 12 11 11 10 10 11 12 12 12 11 10 9 9 10 11 11 11 11 11 11 10 10 10 10 10 9 8 9 10 11 11 12 12 12 12 11 9 10 11 10 9 8 8 8 9 8 8 9 9 9 10 11 11 11 11 10 10 11 12 13 14 15 15 14 14 15 16 15 14 14 13 13 13 12 12 12 11 10 10 10 10 10 11 12 11 11 13 14 14 14 14 14 15 15 14 14 14 15 14 14 15 15 14 14 15 16 15 13 12 11 10 8 8 8 8 8 9 8 9 9 8 8 8 8 9 9 9 9 10 9 9 9 9 9 10 10 10 9 9 9 7 6 6 7 8 8 9 8 7 8 7 6 8 10 11 11 10 9 9 10 10 11 9 8 9 10 10 8 6 7 9 11 11 13 13 11 8 7 8 9 7 7 6 5 5 5 5 6 6 6 7 8 7 6 6 6 7 7 6 5 4 2 1 2 2 1 1 0 -1 0 1 1 0 -1 -1 -1 0 0 1 1 2 3 4 4 4 4 5 5 4 4 3 2 0 0 0 -9 -9 -9 -9 -9 -9 -9 -9 -9 -9 -9 -9 -9 -9 -9 -9 -9 -9 -9 -9 -9 -9 -9 -9 -9 -9 -9 -9 -9 -9 -9 -9 -9 -9 -9 -9 -9 -9 -9 -9 -9 -9 -9 -9 -9 -9 -9 -9 -9 -9 -9 -9 -9 -9 -9 -9 -9 -9 -9 -9 -9 -9 -9 -9 -9 -9 -9 -9 -9 -9 -9 -9 -9 -9 -9 -9 -9 -9 -9 -9 -9 -9 -9 -9 -9 -9 -9 -9 -9 -9 -9 -9 -9 -9 -9 -9 -9 -9 -9 -9 -9 -9 -9 -9 -9 -9 -9 -9 -9 -9 -9 -9 -9 -9 -9 -9 -9 -9 -9 -9 -9 -9 -9 -9 -9 -9 -9 -9 -9 -9 -9 -9 -9 -9 -9 -9 -9 -9 -9 -9 -9 -9 -9 -9 -9 -9 -9 -9 -9 -9 -9 -9 -9 -9 -9 -9 -9 -9 -9 -9 -9 -9 -9 -9 -9 -9 -9 -9 -9 -9 -9 -9 -9 -9 -9 -9 -9 -9 -9 -9 -9 -9 -9 -9 -9 -9 -9 -9 -9 -9 -9 -9 -9 -9 -9 -9 -9 -9 -9 -9 -9 -9 -9 -9 -9 -9 -9 -9 -9 -9 -9 -9 -9 -9 -9 -9 -9 -9 -9 -9 -9 -9 -9 -9 -9 -9 -9 -9 -9 -9 -9 -9 -9 -9 -9 -9 -9 -9 -9 -9 -9 -9 -9 -9 -9 -9 -9 -9 -9 -9 -9 -9 -9 -9 -9 -9 -9 -9 -9 -9 -9 -9 -9 -9 -9 -9 -9 -9 -9 -9 -9 -9 -9 -9 -9 -9 -9 -9 -9 -9 -9 -9 -9 -9 -9 -9 -9 -9 -9 -9 -9 -9 -9 -9 -9 -9 -9 -9 -9 -9 -9 -9 -9 -9 -9 -9 -9 -9 -9 -9 -9 -9 -9 -9 -9 -9 -9 -9 -9 -9 -9 -9 -9 -9 -9 -9 -9 -9 -9 -9 -9 -9 -9 -9 -9 -9 -9 -9 -9 -9 -9 -9 -9 -9 -9 -9 -9 -9 -9 -9 -9 -9 -9 -9 -9 -9 -9 -9 -9 -9 -9 -9 -9 -9 -9 -9 -9 -9 -9 -9 -9 -9 -9 -9 -9 -9 -9 -9 -9 -9 -9 -9 -9 -9 -9 -9 -9 -9 -9 -9 -9 -9 -9 -9 -9 -9 -9 -9 -9 -9 -9 -9 -9 -9 -9 -9 -9 -9 -9 -9 -9 -9 -9 -9 -9 -9 -9 -9 -9 -9 -9 -9 -9 -9 -9 -9 -9 -9 -9 -9 -9 -9 -9 -9 -9 -9
-9 -9 -9 -9 -9 17 15 13 12 13 14 15 15 16 15 13 14 13 11 10 8 8 7 7 7 7 5 4 4 4 3 3 2 1 1 4 4 3 1 0 0 0 3 5 5 3 1 0 -1 -2 -2 -2 -2 -2 -2 -3 -2 -2 -3 -3 -3 -3 -2 0 2 3 1 1 4 7 8 9 7 2 1 -1 -2 -3 -3 -3 -3 -3 -3 -3 -3 -3 -4 -4 -4 -3 -3 -3 -2 -3 -4 -4 -5 -4 -3 -3 -4 -4 -4 -4 -3 -3 -3 -3 -4 -4 -4 -4 -4 -4 -4 -4 -4 -3 -2 -2 -1 0 -1 -1 -2 -3 -4 -3 -3 -4 -4 -4 -4 -3 -3 -2 0 1 4 5 5 6 6 7 7 7 8 8 8 7 7 7 7 7 8 9 8 8 9 8 7 7 8 9 10 11 11 10 9 8 8 9 8 8 8 8 8 8 9 11 10 9 8 7 7 7 7 7 8 9 9 9 8 7 6 5 4 4 3 4 4 4 5 5 6 6 5 5 5 5 5 5 6 6 3 2 2 2 2 2 2 2 2 1 0 -1 -2 -2 -2 -2 -2 -1 0 1 3 4 5 6 7 7 7 8 7 8 7 7 7 8 8 9 9 9 9 9 10 12 14 15 13 12 11 12 13 13 13 13 12 12 13 12 13 14 14 14 14 14 14 15 16 18 19 21 21 24 25 23 20 18 15 14 12 11 12 13 12 13 13 12 11 11 11 11 11 11 12 12 11 11 12 13 14 15 16 17 17 16 16 17 17 16 16 17 17 17 17 17 17 18 19 20 21 21 20 20 19 19 18 18 18 17 16 15 14 15 16 17 17 17 18 18 18 18 17 16 15 14 14 13 12 12 12 11 12 12 11 11 11 11 14 14 14 13 13 12 11 11 10 9 9 10 9 10 11 11 11 12 13 13 12 11 11 10 10 11 10 9 8 9 8 7 8 9 10 11 11 11 13 13 13 13 13 13 13 14 13 12 13 13 12 11 12 13 13 13 12 12 12 12 11 11 11 11 11 9 10 10 11 12 13 13 13 12 12 12 12 13 13 13 13 13 14 14 15 15 15 14 14 14 14 15 14 13 13 12 12 12 11 11 11 10 11 11 9 9 10 9 10 11 11 12 11 11 10 10 11 11 11 11 10 10 9 9 9 9 9 8 7 8 7 7 7 8 8 8 8 9 8 7 7 8 9 10 10 10 10 11 12 13 12 13 13 13 11 9 7 6 9 11 12 11 9 8 9 10 11 9 8 6 5 5 6 7 8 8 8 9 9 7 6 6 6 7 5 4 3 3 2 1 1 0 0 0 0 0 0 0 -1 -2 -2 -2 -1 0 1 2 3 3 4 4 5 6 6 6 5 4 4 3 3 0 0 0 0 -9 -9 -9 -9 -9 -9 -9 -9 -9 -9 -9 -9 -9 -9 -9 -9 -9 -9 -9 -9 -9 -9 -9 -9 -9 -9 -9 -9 -9 -9 -9 -9 -9 -9 -9 -9 -9 -9 -9 -9 -9 -9 -9 -9 -9 -9 -9 -9 -9 -9 -9 -9 -9 -9 -9 -9 -9 -9 -9 -9 -9 -9 -9 -9 -9 -9 -9 -9 -9 -9 -9 -9 -9 -9 -9 -9 -9 -9 -9 -9 -9 -9 -9 -9 -9 -9 -9 -9 -9 -9 -9 -9 -9 -9 -9 -9 -9 -9 -9 -9 -9 -9 -9 -9 -9 -9 -9 -9 -9 -9 -9 -9 -9 -9 -9 -9 -9 -9 -9 -9 -9 -9 -9 -9 -9 -9 -9 -9 -9 -9 -9 -9 -9 -9 -9 -9 -9 -9 -9 -9 -9 -9 -9 -9 -9 -9 -9 -9 -9 -9 -9 -9 -9 -9 -9 -9 -9 -9 -9 -9 -9 -9 -9 -9 -9 -9 -9 -9 -9 -9 -9 -9 -9 -9 -9 -9 -9 -9 -9 -9 -9 -9 -9 -9 -9 -9 -9 -9 -9 -9 -9 -9 -9 -9 -9 -9 -9 -9 -9 -9 -9 -9 -9 -9 -9 -9 -9 -9 -9 -9 -9 -9 -9 -9 -9 -9 -9 -9 -9 -9 -9 -9 -9 -9 -9 -9 -9 -9 -9 -9 -9 -9 -9 -9 -9 -9 -9 -9 -9 -9 -9 -9 -9 -9 -9 -9 -9 -9 -9 -9 -9 -9 -9 -9 -9 -9 -9 -9 -9 -9 -9 -9 -9 -9 -9 -9 -9 -9 -9 -9 -9 -9 -9 -9 -9 -9 -9 -9 -9 -9 -9 -9 -9 -9 -9 -9 -9 -9 -9 -9 -9 -9 -9 -9 -9 -9 -9 -9 -9 -9 -9 -9 -9 -9 -9 -9 -9 -9 -9 -9 -9 -9 -9 -9 -9 -9 -9 -9 -9 -9 -9 -9 -9 -9 -9 -9 -9 -9 -9 -9 -9 -9 -9 -9 -9 -9 -9 -9 -9 -9 -9 -9 -9 -9 -9 -9 -9 -9 -9 -9 -9 -9 -9 -9 -9 -9 -9 -9 -9 -9 -9 -9 -9 -9 -9 -9 -9 -9 -9 -9 -9 -9 -9 -9 -9 -9 -9 -9 -9 -9 -9 -9 -9 -9 -9 -9 -9 -9 -9 -9 -9 -9 -9 -9 -9 -9 -9 -9 -9 -9 -9 -9 -9 -9 -9 -9 -9 -9 -9 -9 -9 -9 -9 -9 -9 -9 -9 -9 -9 -9 -9 -9 -9 -9 -9 -9 -9 -9 -9 -9 -9 -9 -9 -9 -9
-9 -9 -9 -9 -9 12 12 12 13 14 15 16 16 15 15 15 16 16 15 13 9 7 7 8 8 7 6 4 5 6 5 5 5 4 5 11 12 11 7 3 2 6 8 9 10 8 5 4 2 1 0 0 0 -1 -2 -2 -2 -2 -2 -1 0 2 4 5 5 4 5 3 3 4 6 8 9 9 8 6 2 -1 -2 -3 -3 -2 -3 -3 -3 -3 -3 -3 -4 -3 -3 -3 -3 -4 -4 -3 -4 -3 -3 -3 -3 -4 -4 -4 -3 -3 -2 -3 -3 -3 -3 -3 -3 -3 -4 -4 -4 -3 -3 -3 -3 -2 -2 -1 -2 -3 -2 -1 -2 -2 -2 -1 -1 -2 -2 -2 -2 0 2 3 5 6 6 7 7 8 8 7 7 7 8 8 9 9 8 8 9 9 9 8 7 7 8 8 9 10 11 10 9 9 8 6 7 8 8 8 8 8 7 9 9 10 8 6 5 5 5 5 6 6 6 7 8 7 6 5 5 4 3 2 1 2 2 3 4 4 4 5 6 6 6 6 7 6 4 2 2 2 2 2 2 3 3 3 1 0 -1 -1 -2 -3 -3 -2 -1 1 3 5 6 7 7 7 8 9 8 8 8 7 7 8 9 10 10 10 10 11 11 11 13 14 14 14 13 12 12 13 12 12 11 10 11 12 12 13 13 14 14 14 15 16 17 17 19 21 22 23 23 20 17 15 13 13 12 12 11 11 10 11 11 11 11 11 12 12 12 11 11 12 12 11 11 13 14 15 16 16 16 17 17 17 17 16 17 18 17 17 16 17 17 17 19 21 22 22 22 22 22 20 19 19 20 20 19 17 16 15 16 17 16 15 15 14 13 14 15 15 16 16 16 16 16 15 14 14 13 12 11 10 11 13 13 14 14 13 13 13 11 10 9 9 10 10 10 11 12 12 12 13 13 13 12 13 12 12 11 10 10 9 8 8 7 8 9 10 11 11 11 12 14 14 15 16 17 17 17 16 14 12 11 11 12 12 12 12 12 11 10 10 11 11 10 11 11 11 11 10 9 10 12 12 11 12 12 11 11 11 11 11 12 12 13 13 14 14 14 15 15 14 15 14 13 12 12 12 11 10 9 10 12 13 13 13 13 12 11 12 12 12 11 12 13 14 13 13 13 15 16 17 16 14 12 10 9 9 8 8 8 7 6 7 6 5 5 7 10 11 11 12 10 8 8 8 9 10 11 11 11 12 11 11 11 11 12 12 11 9 7 5 6 8 8 6 6 6 8 9 10 9 8 5 4 5 6 8 9 10 11 10 10 8 6 5 5 5 5 4 3 3 3 1 -1 -1 -1 -1 -1 -1 -1 -1 -2 -3 -2 -1 -1 -1 0 1 3 4 5 6 6 6 6 6 6 5 5 4 4 0 0 0 0 -9 -9 -9 -9 -9 -9 -9 -9 -9 -9 -9 -9 -9 -9 -9 -9 -9 -9 -9 -9 -9 -9 -9 -9 -9 -9 -9 -9 -9 -9 -9 -9 -9 -9 -9 -9 -9 -9 -9 -9 -9 -9 -9 -9 -9 -9 -9 -9 -9 -9 -9 -9 -9 -9 -9 -9 -9 -9 -9 -9 -9 -9 -9 -9 -9 -9 -9 -9 -9 -9 -9 -9 -9 -9 -9 -9 -9 -9 -9 -9 -9 -9 -9 -9 -9 -9 -9 -9 -9 -9 -9 -9 -9 -9 -9 -9 -9 -9 -9 -9 -9 -9 -9 -9 -9 -9 -9 -9 -9 -9 -9 -9 -9 -9 -9 -9 -9 -9 -9 -9 -9 -9 -9 -9 -9 -9 -9 -9 -9 -9 -9 -9 -9 -9 -9 -9 -9 -9 -9 -9 -9 -9 -9 -9 -9 -9 -9 -9 -9 -9 -9 -9 -9 -9 -9 -9 -9 -9 -9 -9 -9 -9 -9 -9 -9 -9 -9 -9 -9 -9 -9 -9 -9 -9 -9 -9 -9 -9 -9 -9 -9 -9 -9 -9 -9 -9 -9 -9 -9 -9 -9 -9 -9 -9 -9 -9 -9 -9 -9 -9 -9 -9 -9 -9 -9 -9 -9 -9 -9 -9 -9 -9 -9 -9 -9 -9 -9 -9 -9 -9 -9 -9 -9 -9 -9 -9 -9 -9 -9 -9 -9 -9 -9 -9 -9 -9 -9 -9 -9 -9 -9 -9 -9 -9 -9 -9 -9 -9 -9 -9 -9 -9 -9 -9 -9 -9 -9 -9 -9 -9 -9 -9 -9 -9 -9 -9 -9 -9 -9 -9 -9 -9 -9 -9 -9 -9 -9 -9 -9 -9 -9 -9 -9 -9 -9 -9 -9 -9 -9 -9 -9 -9 -9 -9 -9 -9 -9 -9 -9 -9 -9 -9 -9 -9 -9 -9 -9 -9 -9 -9 -9 -9 -9 -9 -9 -9 -9 -9 -9 -9 -9 -9 -9 -9 -9 -9 -9 -9 -9 -9 -9 -9 -9 -9 -9 -9 -9 -9 -9 -9 -9 -9 -9 -9 -9 -9 -9 -9 -9 -9 -9 -9 -9 -9 -9 -9 -9 -9 -9 -9 -9 -9 -9 -9 -9 -9 -9 -9 -9 -9 -9 -9 -9 -9 -9 -9 -9 -9 -9 -9 -9 -9 -9 -9 -9 -9 -9 -9 -9 -9 -9 -9 -9 -9 -9 -9 -9 -9 -9 -9 -9 -9 -9 -9 -9 -9 -9 -9 -9 -9 -9 -9 -9 -9 -9 -9 -9 -9 -9 -9 -9 -9 -9 -9 -9 -9 -9 -9 -9 -9 -9 -9 -9 -9 -9
-9 -9 -9 -9 -9 13 14 13 13 13 15 16 16 15 14 15 16 16 17 18 15 10 9 9 9 8 7 7 7 7 6 6 6 6 9 15 17 16 15 15 14 13 12 10 8 7 7 5 4 2 1 1 2 2 0 -1 -1 -1 1 7 10 11 11 11 9 6 5 5 5 6 6 5 5 6 6 6 6 5 2 0 -1 -2 -3 -3 -3 -3 -3 -4 -4 -4 -3 -3 -3 -4 -4 -2 -2 -3 -3 -4 -4 -4 -4 -4 -4 -3 -3 -3 -3 -3 -4 -4 -3 -3 -4 -5 -5 -4 -4 -3 -3 -3 -3 -2 -3 -4 -3 -1 0 1 1 1 0 -1 -1 -1 -1 -1 0 2 3 5 6 7 8 8 7 7 7 7 7 8 8 8 8 8 8 8 8 7 7 8 9 10 10 10 9 8 7 7 7 7 8 8 9 8 8 7 6 6 7 7 6 5 4 4 4 4 4 4 4 6 7 7 7 7 6 4 3 2 2 2 2 2 3 3 3 4 5 5 5 7 7 5 3 3 3 2 2 3 2 2 2 3 2 1 2 0 -1 -1 -1 0 0 1 2 3 4 6 7 8 8 9 10 8 8 9 8 9 10 11 11 11 11 11 11 12 12 13 12 12 12 12 12 12 11 12 11 10 10 9 11 12 13 14 13 14 15 15 16 16 15 16 19 21 20 17 14 13 12 13 13 12 11 10 9 10 10 11 11 10 10 11 11 11 11 12 13 13 13 14 15 15 15 16 16 16 17 16 17 19 19 18 17 17 17 16 16 16 17 19 20 19 19 20 21 21 21 20 20 20 20 19 20 20 18 17 16 16 15 16 15 16 16 18 19 18 18 18 18 18 17 16 14 13 12 11 12 13 13 13 13 13 12 12 11 10 10 11 11 11 11 11 11 12 12 13 14 14 13 14 13 13 13 12 11 12 11 10 11 10 9 9 10 10 10 11 15 16 17 17 18 18 18 17 17 15 14 14 14 13 12 12 12 12 12 11 11 11 10 10 10 10 9 8 8 9 10 10 11 13 12 11 12 12 12 13 12 12 11 11 12 13 14 14 15 14 14 14 14 13 12 11 10 10 10 10 13 14 14 14 13 13 13 14 14 14 13 13 15 16 15 15 15 15 16 17 17 16 14 12 11 10 9 8 8 8 7 6 5 6 6 9 12 13 13 12 10 9 8 7 8 11 12 13 14 14 12 10 9 8 8 9 9 9 7 5 4 5 4 3 3 3 3 4 5 5 5 5 5 6 7 8 9 10 10 10 9 9 7 6 5 4 3 2 2 2 1 1 1 0 -1 -1 -2 -1 -1 0 -1 -1 -1 -1 -1 -1 0 2 3 3 4 5 6 7 8 8 7 6 5 5 5 0 0 0 0 -9 -9 -9 -9 -9 -9 -9 -9 -9 -9 -9 -9 -9 -9 -9 -9 -9 -9 -9 -9 -9 -9 -9 -9 -9 -9 -9 -9 -9 -9 -9 -9 -9 -9 -9 -9 -9 -9 -9 -9 -9 -9 -9 -9 -9 -9 -9 -9 -9 -9 -9 -9 -9 -9 -9 -9 -9 -9 -9 -9 -9 -9 -9 -9 -9 -9 -9 -9 -9 -9 -9 -9 -9 -9 -9 -9 -9 -9 -9 -9 -9 -9 -9 -9 -9 -9 -9 -9 -9 -9 -9 -9 -9 -9 -9 -9 -9 -9 -9 -9 -9 -9 -9 -9 -9 -9 -9 -9 -9 -9 -9 -9 -9 -9 -9 -9 -9 -9 -9 -9 -9 -9 -9 -9 -9 -9 -9 -9 -9 -9 -9 -9 -9 -9 -9 -9 -9 -9 -9 -9 -9 -9 -9 -9 -9 -9 -9 -9 -9 -9 -9 -9 -9 -9 -9 -9 -9 -9 -9 -9 -9 -9 -9 -9 -9 -9 -9 -9 -9 -9 -9 -9 -9 -9 -9 -9 -9 -9 -9 -9 -9 -9 -9 -9 -9 -9 -9 -9 -9 -9 -9 -9 -9 -9 -9 -9 -9 -9 -9 -9 -9 -9 -9 -9 -9 -9 -9 -9 -9 -9 -9 -9 -9 -9 -9 -9 -9 -9 -9 -9 -9 -9 -9 -9 -9 -9 -9 -9 -9 -9 -9 -9 -9 -9 -9 -9 -9 -9 -9 -9 -9 -9 -9 -9 -9 -9 -9 -9 -9 -9 -9 -9 -9 -9 -9 -9 -9 -9 -9 -9 -9 -9 -9 -9 -9 -9 -9 -9 -9 -9 -9 -9 -9 -9 -9 -9 -9 -9 -9 -9 -9 -9 -9 -9 -9 -9 -9 -9 -9 -9 -9 -9 -9 -9 -9 -9 -9 -9 -9 -9 -9 -9 -9 -9 -9 -9 -9 -9 -9 -9 -9 -9 -9 -9 -9 -9 -9 -9 -9 -9 -9 -9 -9 -9 -9 -9 -9 -9 -9 -9 -9 -9 -9 -9 -9 -9 -9 -9 -9 -9 -9 -9 -9 -9 -9 -9 -9 -9 -9 -9 -9 -9 -9 -9 -9 -9 -9 -9 -9 -9 -9 -9 -9 -9 -9 -9 -9 -9 -9 -9 -9 -9 -9 -9 -9 -9 -9 -9 -9 -9 -9 -9 -9 -9 -9 -9 -9 -9 -9 -9 -9 -9 -9 -9 -9 -9 -9 -9 -9 -9 -9 -9 -9 -9 -9 -9 -9 -9 -9 -9 -9 -9 -9 -9 -9 -9 -9 -9 -9 -9 -9 -9 -9 -9 -9 -9 -9 -9 -9 -9 -9 -9 -9 -9 -9
-9 -9 -9 -9 -9 14 14 14 14 14 15 16 17 15 14 14 15 15 16 17 17 13 11 9 8 7 7 7 8 8 7 6 7 7 9 14 16 16 16 15 15 15 15 12 8 7 7 6 5 4 3 4 5 3 0 -1 -1 -1 0 6 10 12 12 10 9 7 5 4 4 5 6 6 5 5 5 6 6 7 5 2 0 -3 -4 -4 -3 -3 -3 -3 -3 -3 -4 -4 -4 -3 -3 -3 -3 -4 -4 -4 -4 -4 -4 -4 -3 -3 -3 -3 -3 -2 -3 -3 -3 -4 -4 -4 -4 -4 -3 -3 -3 -3 -3 -3 -3 -4 -3 -2 -1 0 0 1 0 -2 -3 -3 -1 0 0 1 2 4 5 6 7 8 7 6 6 6 6 6 7 7 7 8 8 8 7 7 6 7 9 10 10 8 7 6 5 6 7 7 7 8 8 8 8 6 6 6 6 6 5 5 4 4 4 4 4 4 4 5 6 7 7 7 7 5 3 2 2 1 1 1 1 2 2 3 4 4 5 6 7 5 4 4 4 3 3 3 2 1 1 1 1 0 1 1 0 -1 0 0 0 0 1 2 3 5 7 8 8 9 9 8 9 9 9 9 10 11 11 12 11 11 11 12 12 13 12 12 12 12 12 12 12 12 12 11 10 10 11 12 13 14 13 14 14 14 15 16 15 15 16 18 17 15 14 13 12 12 12 11 11 11 11 11 11 11 10 10 11 11 11 11 11 12 13 13 14 15 16 16 15 16 16 16 16 16 17 18 19 19 19 18 17 16 15 15 17 18 19 19 20 20 20 21 21 20 20 19 19 21 22 20 18 17 16 15 16 17 18 19 19 20 21 20 19 18 18 19 18 17 15 13 13 11 11 12 12 12 12 12 12 11 11 10 10 11 11 11 12 12 13 14 14 13 14 14 14 13 13 12 13 13 12 12 12 11 11 9 9 9 9 10 10 12 15 16 17 18 18 18 18 17 17 16 15 14 13 12 11 11 10 10 11 10 10 11 10 10 10 9 9 8 9 10 11 11 11 12 12 12 13 13 13 13 13 12 12 11 13 15 14 14 15 15 14 14 14 13 12 11 10 10 10 11 13 14 14 13 13 14 14 15 16 16 15 15 17 17 17 17 16 16 17 17 16 16 15 14 13 11 9 8 8 8 7 6 5 5 5 7 10 11 11 10 9 9 9 8 8 10 12 13 14 13 11 9 8 7 7 7 8 8 7 5 4 3 2 1 1 2 1 1 2 3 3 5 6 7 7 8 9 10 10 10 9 9 7 6 5 3 1 0 0 0 0 1 1 1 -1 -1 -1 -1 -1 0 0 -1 -1 0 0 1 1 3 4 4 4 5 6 7 8 8 8 7 6 5 5 0 0 0 0 -9 -9 -9 -9 -9 -9 -9 -9 -9 -9 -9 -9 -9 -9 -9 -9 -9 -9 -9 -9 -9 -9 -9 -9 -9 -9 -9 -9 -9 -9 -9 -9 -9 -9 -9 -9 -9 -9 -9 -9 -9 -9 -9 -9 -9 -9 -9 -9 -9 -9 -9 -9 -9 -9 -9 -9 -9 -9 -9 -9 -9 -9 -9 -9 -9 -9 -9 -9 -9 -9 -9 -9 -9 -9 -9 -9 -9 -9 -9 -9 -9 -9 -9 -9 -9 -9 -9 -9 -9 -9 -9 -9 -9 -9 -9 -9 -9 -9 -9 -9 -9 -9 -9 -9 -9 -9 -9 -9 -9 -9 -9 -9 -9 -9 -9 -9 -9 -9 -9 -9 -9 -9 -9 -9 -9 -9 -9 -9 -9 -9 -9 -9 -9 -9 -9 -9 -9 -9 -9 -9 -9 -9 -9 -9 -9 -9 -9 -9 -9 -9 -9 -9 -9 -9 -9 -9 -9 -9 -9 -9 -9 -9 -9 -9 -9 -9 -9 -9 -9 -9 -9 -9 -9 -9 -9 -9 -9 -9 -9 -9 -9 -9 -9 -9 -9 -9 -9 -9 -9 -9 -9 -9 -9 -9 -9 -9 -9 -9 -9 -9 -9 -9 -9 -9 -9 -9 -9 -9 -9 -9 -9 -9 -9 -9 -9 -9 -9 -9 -9 -9 -9 -9 -9 -9 -9 -9 -9 -9 -9 -9 -9 -9 -9 -9 -9 -9 -9 -9 -9 -9 -9 -9 -9 -9 -9 -9 -9 -9 -9 -9 -9 -9 -9 -9 -9 -9 -9 -9 -9 -9 -9 -9 -9 -9 -9 -9 -9 -9 -9 -9 -9 -9 -9 -9 -9 -9 -9 -9 -9 -9 -9 -9 -9 -9 -9 -9 -9 -9 -9 -9 -9 -9 -9 -9 -9 -9 -9 -9 -9 -9 -9 -9 -9 -9 -9 -9 -9 -9 -9 -9 -9 -9 -9 -9 -9 -9 -9 -9 -9 -9 -9 -9 -9 -9 -9 -9 -9 -9 -9 -9 -9 -9 -9 -9 -9 -9 -9 -9 -9 -9 -9 -9 -9 -9 -9 -9 -9 -9 -9 -9 -9 -9 -9 -9 -9 -9 -9 -9 -9 -9 -9 -9 -9 -9 -9 -9 -9 -9 -9 -9 -9 -9 -9 -9 -9 -9 -9 -9 -9 -9 -9 -9 -9 -9 -9 -9 -9 -9 -9 -9 -9 -9 -9 -9 -9 -9 -9 -9 -9 -9 -9 -9 -9 -9 -9 -9 -9 -9 -9 -9 -9 -9 -9 -9 -9 -9 -9 -9 -9 -9 -9 -9 -9 -9 -9 -9 -9 -9 -9 -9 -9 -9 -9 -9 -9
-9 -9 -9 -9 -9 16 15 15 14 15 17 18 17 16 15 15 15 15 15 14 15 18 18 14 10 8 7 9 9 8 8 8 8 6 7 11 13 13 12 13 15 17 16 14 13 13 10 9 7 7 9 10 8 4 1 -1 -1 -1 0 2 5 7 9 8 8 7 7 8 8 7 7 7 5 5 5 5 6 6 4 2 -1 -3 -4 -4 -3 -2 -1 0 -2 -3 -4 -3 -3 -2 -3 -3 -3 -3 -3 -4 -4 -4 -5 -4 -3 -3 -3 -3 -3 -3 -3 -3 -3 -3 -4 -4 -3 -3 -3 -3 -3 -3 -4 -5 -3 -2 -2 -2 -3 -2 -1 -1 -2 -3 -3 -3 -2 -1 0 0 2 3 3 4 4 4 4 5 5 5 4 4 5 6 6 6 6 5 5 5 5 6 7 8 8 7 6 5 5 6 6 6 7 8 8 8 8 6 6 6 6 6 5 4 4 4 3 3 4 3 3 4 4 4 6 8 8 6 3 2 2 1 1 0 0 1 1 1 2 3 4 5 5 5 4 5 4 4 3 3 2 0 0 0 1 2 2 2 2 1 0 -1 -2 -1 0 1 3 5 6 7 7 7 7 8 8 8 8 8 9 10 9 9 10 11 10 11 12 13 12 12 12 12 11 12 13 14 13 13 13 12 12 13 13 14 14 13 13 13 14 15 16 16 16 15 14 13 12 12 11 11 10 10 10 10 11 10 10 10 9 10 10 11 11 12 13 13 13 14 15 16 15 15 15 16 15 15 15 15 16 17 19 19 18 17 16 15 15 16 16 18 19 19 19 19 19 20 20 21 21 21 20 20 20 19 17 16 16 17 18 19 19 20 21 20 20 20 20 19 19 18 18 16 15 13 11 11 11 10 11 11 11 10 10 10 9 10 10 10 11 11 13 14 15 16 15 15 14 14 13 13 13 12 13 13 13 12 11 11 10 8 8 9 11 12 13 15 17 17 17 18 19 19 18 16 15 16 15 14 13 13 11 9 8 8 10 11 11 10 11 11 10 10 10 10 11 12 10 10 11 12 12 13 14 14 14 13 12 11 11 12 12 12 13 14 15 13 12 13 12 11 11 12 13 14 13 12 13 15 16 15 15 15 15 15 16 17 16 16 18 17 18 18 17 16 15 16 16 16 16 15 14 13 11 10 10 10 10 8 7 6 6 5 5 7 10 12 13 13 12 12 11 10 11 11 12 12 10 8 6 4 4 6 8 7 5 4 4 4 1 0 0 0 -1 0 2 3 4 5 7 8 8 8 8 9 10 9 8 8 7 6 4 3 1 0 0 0 -1 0 1 1 1 1 0 0 -1 0 0 1 1 2 3 3 3 4 5 5 5 5 6 6 6 7 7 8 8 7 6 0 0 0 0 0 -9 -9 -9 -9 -9 -9 -9 -9 -9 -9 -9 -9 -9 -9 -9 -9 -9 -9 -9 -9 -9 -9 -9 -9 -9 -9 -9 -9 -9 -9 -9 -9 -9 -9 -9 -9 -9 -9 -9 -9 -9 -9 -9 -9 -9 -9 -9 -9 -9 -9 -9 -9 -9 -9 -9 -9 -9 -9 -9 -9 -9 -9 -9 -9 -9 -9 -9 -9 -9 -9 -9 -9 -9 -9 -9 -9 -9 -9 -9 -9 -9 -9 -9 -9 -9 -9 -9 -9 -9 -9 -9 -9 -9 -9 -9 -9 -9 -9 -9 -9 -9 -9 -9 -9 -9 -9 -9 -9 -9 -9 -9 -9 -9 -9 -9 -9 -9 -9 -9 -9 -9 -9 -9 -9 -9 -9 -9 -9 -9 -9 -9 -9 -9 -9 -9 -9 -9 -9 -9 -9 -9 -9 -9 -9 -9 -9 -9 -9 -9 -9 -9 -9 -9 -9 -9 -9 -9 -9 -9 -9 -9 -9 -9 -9 -9 -9 -9 -9 -9 -9 -9 -9 -9 -9 -9 -9 -9 -9 -9 -9 -9 -9 -9 -9 -9 -9 -9 -9 -9 -9 -9 -9 -9 -9 -9 -9 -9 -9 -9 -9 -9 -9 -9 -9 -9 -9 -9 -9 -9 -9 -9 -9 -9 -9 -9 -9 -9 -9 -9 -9 -9 -9 -9 -9 -9 -9 -9 -9 -9 -9 -9 -9 -9 -9 -9 -9 -9 -9 -9 -9 -9 -9 -9 -9 -9 -9 -9 -9 -9 -9 -9 -9 -9 -9 -9 -9 -9 -9 -9 -9 -9 -9 -9 -9 -9 -9 -9 -9 -9 -9 -9 -9 -9 -9 -9 -9 -9 -9 -9 -9 -9 -9 -9 -9 -9 -9 -9 -9 -9 -9 -9 -9 -9 -9 -9 -9 -9 -9 -9 -9 -9 -9 -9 -9 -9 -9 -9 -9 -9 -9 -9 -9 -9 -9 -9 -9 -9 -9 -9 -9 -9 -9 -9 -9 -9 -9 -9 -9 -9 -9 -9 -9 -9 -9 -9 -9 -9 -9 -9 -9 -9 -9 -9 -9 -9 -9 -9 -9 -9 -9 -9 -9 -9 -9 -9 -9 -9 -9 -9 -9 -9 -9 -9 -9 -9 -9 -9 -9 -9 -9 -9 -9 -9 -9 -9 -9 -9 -9 -9 -9 -9 -9 -9 -9 -9 -9 -9 -9 -9 -9 -9 -9 -9 -9 -9 -9 -9 -9 -9 -9 -9 -9 -9 -9 -9 -9 -9 -9 -9 -9 -9 -9 -9 -9 -9 -9 -9 -9 -9 -9 -9 -9 -9 -9 -9 -9 -9 -9 -9 -9 -9 -9 -9 -9
-9 -9 -9 -9 -9 17 17 16 16 15 16 16 15 14 14 14 14 15 16 17 17 19 21 20 18 14 13 12 10 9 9 10 11 11 9 8 8 8 8 9 13 16 17 17 16 15 12 9 8 9 11 12 11 7 2 -1 -2 -2 0 1 2 4 6 8 10 11 11 10 10 8 7 7 6 4 4 4 3 2 1 -1 -2 -3 -3 -4 -4 -3 -4 -3 -2 -3 -3 -3 -3 -3 -3 -3 -3 -3 -3 -3 -3 -3 -3 -3 -3 -4 -3 -3 -3 -3 -4 -4 -4 -4 -4 -3 -4 -3 -3 -3 -3 -3 -3 -4 -3 -2 -2 -2 -2 -3 -3 -4 -5 -5 -3 -2 -3 -3 -2 -1 0 1 1 2 2 3 4 5 5 5 4 4 4 4 3 3 4 5 5 6 7 8 9 7 6 5 5 5 4 3 4 6 6 7 8 9 9 9 9 8 7 6 4 3 3 3 2 2 3 3 3 3 4 4 6 7 7 6 5 5 4 3 2 2 1 0 1 2 2 2 2 2 3 4 4 2 2 3 3 3 3 3 3 3 3 2 2 3 2 1 0 -1 -2 -2 -1 1 2 4 5 5 6 6 7 8 8 8 8 9 9 9 9 9 9 9 11 12 12 12 13 13 13 13 12 11 12 13 12 12 12 12 13 13 13 12 13 13 14 13 14 14 15 15 15 15 14 13 11 11 10 9 9 10 11 11 11 11 11 11 10 10 10 10 11 12 13 14 15 17 18 18 16 15 14 15 14 13 13 14 15 16 17 17 17 17 16 16 15 16 16 17 18 18 18 18 20 21 22 21 21 20 20 19 18 16 15 15 16 18 19 19 19 19 19 18 17 17 18 18 17 17 16 15 13 11 10 9 10 10 11 12 12 12 11 11 10 11 11 10 12 13 14 15 16 16 15 14 13 13 14 14 12 12 12 12 12 12 12 11 11 11 12 13 13 14 14 16 17 17 17 17 18 18 18 18 18 18 17 16 15 14 13 12 11 10 10 11 11 11 10 10 10 10 11 11 11 12 12 11 12 12 12 12 14 14 14 13 12 12 11 11 11 12 12 12 12 13 13 12 11 11 12 13 13 13 13 14 14 14 15 16 16 16 17 17 18 17 17 16 17 16 16 16 17 16 15 15 15 14 15 15 14 13 12 12 13 12 11 10 9 7 7 6 7 8 10 11 12 13 13 12 12 13 13 13 14 15 14 12 10 6 4 5 8 8 4 4 6 7 4 2 1 0 0 0 2 4 4 4 5 7 8 9 9 9 9 9 8 7 5 3 1 0 0 -1 -1 -1 0 1 2 4 4 3 1 1 0 0 0 2 3 4 5 5 5 5 5 5 5 6 6 6 7 7 7 7 7 8 8 0 0 0 0 0 -9 -9 -9 -9 -9 -9 -9 -9 -9 -9 -9 -9 -9 -9 -9 -9 -9 -9 -9 -9 -9 -9 -9 -9 -9 -9 -9 -9 -9 -9 -9 -9 -9 -9 -9 -9 -9 -9 -9 -9 -9 -9 -9 -9 -9 -9 -9 -9 -9 -9 -9 -9 -9 -9 -9 -9 -9 -9 -9 -9 -9 -9 -9 -9 -9 -9 -9 -9 -9 -9 -9 -9 -9 -9 -9 -9 -9 -9 -9 -9 -9 -9 -9 -9 -9 -9 -9 -9 -9 -9 -9 -9 -9 -9 -9 -9 -9 -9 -9 -9 -9 -9 -9 -9 -9 -9 -9 -9 -9 -9 -9 -9 -9 -9 -9 -9 -9 -9 -9 -9 -9 -9 -9 -9 -9 -9 -9 -9 -9 -9 -9 -9 -9 -9 -9 -9 -9 -9 -9 -9 -9 -9 -9 -9 -9 -9 -9 -9 -9 -9 -9 -9 -9 -9 -9 -9 -9 -9 -9 -9 -9 -9 -9 -9 -9 -9 -9 -9 -9 -9 -9 -9 -9 -9 -9 -9 -9 -9 -9 -9 -9 -9 -9 -9 -9 -9 -9 -9 -9 -9 -9 -9 -9 -9 -9 -9 -9 -9 -9 -9 -9 -9 -9 -9 -9 -9 -9 -9 -9 -9 -9 -9 -9 -9 -9 -9 -9 -9 -9 -9 -9 -9 -9 -9 -9 -9 -9 -9 -9 -9 -9 -9 -9 -9 -9 -9 -9 -9 -9 -9 -9 -9 -9 -9 -9 -9 -9 -9 -9 -9 -9 -9 -9 -9 -9 -9 -9 -9 -9 -9 -9 -9 -9 -9 -9 -9 -9 -9 -9 -9 -9 -9 -9 -9 -9 -9 -9 -9 -9 -9 -9 -9 -9 -9 -9 -9 -9 -9 -9 -9 -9 -9 -9 -9 -9 -9 -9 -9 -9 -9 -9 -9 -9 -9 -9 -9 -9 -9 -9 -9 -9 -9 -9 -9 -9 -9 -9 -9 -9 -9 -9 -9 -9 -9 -9 -9 -9 -9 -9 -9 -9 -9 -9 -9 -9 -9 -9 -9 -9 -9 -9 -9 -9 -9 -9 -9 -9 -9 -9 -9 -9 -9 -9 -9 -9 -9 -9 -9 -9 -9 -9 -9 -9 -9 -9 -9 -9 -9 -9 -9 -9 -9 -9 -9 -9 -9 -9 -9 -9 -9 -9 -9 -9 -9 -9 -9 -9 -9 -9 -9 -9 -9 -9 -9 -9 -9 -9 -9 -9 -9 -9 -9 -9 -9 -9 -9 -9 -9 -9 -9 -9 -9 -9 -9 -9 -9 -9 -9 -9 -9 -9 -9 -9 -9 -9 -9 -9 -9 -9 -9 -9 -9 -9 -9
-9 -9 -9 -9 -9 17 17 16 16 15 14 14 13 12 12 13 15 17 18 18 18 17 18 17 17 17 17 18 16 11 11 12 13 11 9 9 10 10 10 10 10 13 17 18 18 16 14 13 14 14 14 14 12 8 3 1 1 1 3 4 4 5 7 8 8 10 13 13 12 10 10 8 6 3 2 1 -1 -2 -2 -2 -2 -3 -2 -3 -4 -4 -5 -5 -4 -3 -3 -3 -3 -3 -3 -3 -3 -2 -1 -2 -3 -3 -3 -3 -4 -3 -2 -2 -2 -2 -2 -2 -2 -2 -1 -1 -2 -3 -2 -2 -2 -2 -2 -3 -3 -2 -2 -1 -2 -3 -3 -3 -3 -4 -5 -4 -2 -3 -4 -4 -4 -3 -2 -1 -1 0 1 2 2 2 2 3 2 1 2 2 2 3 3 5 7 8 8 6 4 3 2 3 3 2 2 3 4 4 5 7 7 7 7 7 6 5 4 3 3 3 1 0 -1 0 2 3 5 6 6 5 4 3 4 4 4 4 3 3 3 3 3 3 2 2 2 1 1 2 4 4 4 4 4 3 4 5 5 5 4 3 2 1 1 0 -1 -1 0 0 1 2 2 3 3 4 5 5 6 7 7 7 7 7 8 9 9 9 10 9 10 10 10 11 11 11 11 11 10 10 10 11 11 12 11 12 12 11 11 12 13 14 14 14 15 15 15 16 15 14 13 11 10 11 10 9 9 9 10 11 12 12 12 13 11 10 9 11 12 13 13 13 14 15 15 14 14 14 14 14 13 12 12 12 13 14 14 15 15 15 15 15 15 16 17 17 17 18 19 20 22 23 24 24 23 22 20 17 15 14 13 14 14 15 15 16 17 17 16 14 13 15 16 17 17 16 15 13 12 12 12 10 11 10 11 12 12 13 11 10 10 11 12 14 15 15 15 14 15 16 16 15 14 14 14 14 14 13 14 14 12 12 13 14 16 18 17 18 17 16 16 16 16 16 16 17 18 19 18 17 18 19 18 17 16 15 14 13 12 12 11 10 10 10 11 11 11 11 12 13 13 14 14 14 12 12 11 10 10 12 12 13 12 12 11 11 12 11 11 11 11 12 12 13 12 12 13 13 14 15 15 16 17 17 16 15 16 16 16 17 16 17 18 18 18 17 17 17 17 15 14 14 14 14 15 15 14 13 13 13 13 13 12 12 11 12 12 11 11 13 14 14 15 16 16 16 16 16 15 14 14 15 15 14 13 12 9 7 9 11 9 6 6 5 3 1 1 0 0 0 1 2 3 4 5 7 8 9 9 9 9 8 7 6 4 2 1 0 0 0 0 0 0 0 1 3 4 2 2 2 2 2 2 3 4 6 6 5 5 4 4 5 5 6 7 6 6 6 6 6 6 6 6 0 0 0 0 0 -9 -9 -9 -9 -9 -9 -9 -9 -9 -9 -9 -9 -9 -9 -9 -9 -9 -9 -9 -9 -9 -9 -9 -9 -9 -9 -9 -9 -9 -9 -9 -9 -9 -9 -9 -9 -9 -9 -9 -9 -9 -9 -9 -9 -9 -9 -9 -9 -9 -9 -9 -9 -9 -9 -9 -9 -9 -9 -9 -9 -9 -9 -9 -9 -9 -9 -9 -9 -9 -9 -9 -9 -9 -9 -9 -9 -9 -9 -9 -9 -9 -9 -9 -9 -9 -9 -9 -9 -9 -9 -9 -9 -9 -9 -9 -9 -9 -9 -9 -9 -9 -9 -9 -9 -9 -9 -9 -9 -9 -9 -9 -9 -9 -9 -9 -9 -9 -9 -9 -9 -9 -9 -9 -9 -9 -9 -9 -9 -9 -9 -9 -9 -9 -9 -9 -9 -9 -9 -9 -9 -9 -9 -9 -9 -9 -9 -9 -9 -9 -9 -9 -9 -9 -9 -9 -9 -9 -9 -9 -9 -9 -9 -9 -9 -9 -9 -9 -9 -9 -9 -9 -9 -9 -9 -9 -9 -9 -9 -9 -9 -9 -9 -9 -9 -9 -9 -9 -9 -9 -9 -9 -9 -9 -9 -9 -9 -9 -9 -9 -9 -9 -9 -9 -9 -9 -9 -9 -9 -9 -9 -9 -9 -9 -9 -9 -9 -9 -9 -9 -9 -9 -9 -9 -9 -9 -9 -9 -9 -9 -9 -9 -9 -9 -9 -9 -9 -9 -9 -9 -9 -9 -9 -9 -9 -9 -9 -9 -9 -9 -9 -9 -9 -9 -9 -9 -9 -9 -9 -9 -9 -9 -9 -9 -9 -9 -9 -9 -9 -9 -9 -9 -9 -9 -9 -9 -9 -9 -9 -9 -9 -9 -9 -9 -9 -9 -9 -9 -9 -9 -9 -9 -9 -9 -9 -9 -9 -9 -9 -9 -9 -9 -9 -9 -9 -9 -9 -9 -9 -9 -9 -9 -9 -9 -9 -9 -9 -9 -9 -9 -9 -9 -9 -9 -9 -9 -9 -9 -9 -9 -9 -9 -9 -9 -9 -9 -9 -9 -9 -9 -9 -9 -9 -9 -9 -9 -9 -9 -9 -9 -9 -9 -9 -9 -9 -9 -9 -9 -9 -9 -9 -9 -9 -9 -9 -9 -9 -9 -9 -9 -9 -9 -9 -9 -9 -9 -9 -9 -9 -9 -9 -9 -9 -9 -9 -9 -9 -9 -9 -9 -9 -9 -9 -9 -9 -9 -9 -9 -9 -9 -9 -9 -9 -9 -9 -9 -9 -9 -9 -9 -9 -9 -9 -9 -9 -9 -9 -9 -9 -9 -9 -9 -9 -9 -9 -9 -9 -9 -9 -9 -9 -9 -9 -9 -9
-9 -9 -9 -9 -9 16 15 16 16 15 14 13 13 12 13 13 15 16 17 17 17 18 17 15 15 15 15 15 14 15 14 14 14 11 10 10 12 12 12 11 11 14 18 19 17 16 16 17 18 19 18 16 12 8 5 3 4 8 9 6 4 6 8 9 8 7 7 8 9 9 10 9 7 1 0 -2 -3 -3 -3 -3 -3 -3 -3 -2 -3 -3 -3 -3 -3 -2 -3 -3 -3 -3 -4 -3 -2 -2 -1 0 -2 -4 -3 -3 -3 -4 -3 -2 -2 -2 -1 -1 -1 -1 -1 -1 -2 -3 -3 -2 -2 -2 -3 -4 -3 -2 -2 -2 -2 -3 -4 -4 -3 -3 -4 -4 -3 -4 -4 -3 -4 -4 -4 -3 -3 -2 -1 -1 -1 -1 -1 -1 -1 -1 0 1 1 1 0 2 3 3 3 3 2 1 1 1 1 0 0 1 0 2 4 5 6 7 6 5 4 4 2 0 0 0 0 -1 -1 0 1 2 3 4 4 4 5 4 3 4 5 4 3 2 3 3 5 4 2 1 1 1 2 4 5 5 4 4 5 5 4 3 2 1 1 1 1 0 -1 -1 -2 -2 -1 0 2 3 3 1 1 1 3 4 4 5 6 6 7 8 9 10 9 9 9 9 10 10 11 11 12 12 12 11 11 10 11 11 12 13 13 12 12 12 13 12 12 12 13 14 15 16 15 14 13 12 13 13 12 11 12 13 12 10 11 11 11 11 11 12 13 13 12 13 14 14 14 14 14 14 12 11 10 10 11 11 12 12 12 12 11 11 11 11 12 13 14 14 15 16 17 18 18 19 20 20 21 22 22 22 22 21 19 16 14 14 13 13 13 13 14 14 15 16 16 15 14 13 13 14 14 14 12 11 13 15 15 15 14 12 10 12 13 14 13 12 11 11 13 15 16 17 17 17 16 16 17 16 16 16 16 16 16 15 15 15 15 15 15 16 16 16 17 19 18 18 17 16 16 16 17 18 18 17 16 16 16 16 16 16 16 15 15 14 13 13 12 11 10 11 12 12 12 14 14 14 14 14 14 13 12 11 11 11 10 10 10 10 11 11 12 12 12 11 10 10 11 12 12 13 13 12 13 13 15 16 17 17 18 18 18 16 15 15 15 15 16 17 17 17 17 17 18 18 18 18 17 18 17 16 16 15 14 13 13 12 12 14 15 16 16 15 15 15 15 16 17 17 17 16 16 16 16 16 16 15 15 15 15 14 13 13 12 11 10 10 10 9 9 7 4 3 3 3 2 2 2 2 2 2 3 5 6 6 7 7 7 7 5 3 2 1 0 0 -1 -1 0 1 0 0 1 2 2 1 2 2 3 3 3 3 4 5 5 4 4 4 4 5 4 4 5 5 5 6 6 5 6 6 6 6 0 0 0 0 -9 -9 -9 -9 -9 -9 -9 -9 -9 -9 -9 -9 -9 -9 -9 -9 -9 -9 -9 -9 -9 -9 -9 -9 -9 -9 -9 -9 -9 -9 -9 -9 -9 -9 -9 -9 -9 -9 -9 -9 -9 -9 -9 -9 -9 -9 -9 -9 -9 -9 -9 -9 -9 -9 -9 -9 -9 -9 -9 -9 -9 -9 -9 -9 -9 -9 -9 -9 -9 -9 -9 -9 -9 -9 -9 -9 -9 -9 -9 -9 -9 -9 -9 -9 -9 -9 -9 -9 -9 -9 -9 -9 -9 -9 -9 -9 -9 -9 -9 -9 -9 -9 -9 -9 -9 -9 -9 -9 -9 -9 -9 -9 -9 -9 -9 -9 -9 -9 -9 -9 -9 -9 -9 -9 -9 -9 -9 -9 -9 -9 -9 -9 -9 -9 -9 -9 -9 -9 -9 -9 -9 -9 -9 -9 -9 -9 -9 -9 -9 -9 -9 -9 -9 -9 -9 -9 -9 -9 -9 -9 -9 -9 -9 -9 -9 -9 -9 -9 -9 -9 -9 -9 -9 -9 -9 -9 -9 -9 -9 -9 -9 -9 -9 -9 -9 -9 -9 -9 -9 -9 -9 -9 -9 -9 -9 -9 -9 -9 -9 -9 -9 -9 -9 -9 -9 -9 -9 -9 -9 -9 -9 -9 -9 -9 -9 -9 -9 -9 -9 -9 -9 -9 -9 -9 -9 -9 -9 -9 -9 -9 -9 -9 -9 -9 -9 -9 -9 -9 -9 -9 -9 -9 -9 -9 -9 -9 -9 -9 -9 -9 -9 -9 -9 -9 -9 -9 -9 -9 -9 -9 -9 -9 -9 -9 -9 -9 -9 -9 -9 -9 -9 -9 -9 -9 -9 -9 -9 -9 -9 -9 -9 -9 -9 -9 -9 -9 -9 -9 -9 -9 -9 -9 -9 -9 -9 -9 -9 -9 -9 -9 -9 -9 -9 -9 -9 -9 -9 -9 -9 -9 -9 -9 -9 -9 -9 -9 -9 -9 -9 -9 -9 -9 -9 -9 -9 -9 -9 -9 -9 -9 -9 -9 -9 -9 -9 -9 -9 -9 -9 -9 -9 -9 -9 -9 -9 -9 -9 -9 -9 -9 -9 -9 -9 -9 -9 -9 -9 -9 -9 -9 -9 -9 -9 -9 -9 -9 -9 -9 -9 -9 -9 -9 -9 -9 -9 -9 -9 -9 -9 -9 -9 -9 -9 -9 -9 -9 -9 -9 -9 -9 -9 -9 -9 -9 -9 -9 -9 -9 -9 -9 -9 -9 -9 -9 -9 -9 -9 -9 -9 -9 -9 -9 -9 -9 -9 -9 -9 -9 -9 -9 -9 -9 -9 -9 -9 -9 -9 -9 -9 -9 -9 -9 -9 -9
-9 -9 -9 -9 -9 17 17 17 17 17 18 17 17 17 16 16 18 19 19 19 19 18 19 19 18 17 16 13 12 13 16 20 19 17 15 14 14 14 13 13 13 14 16 17 15 12 12 14 16 17 18 18 13 7 4 3 4 6 9 7 4 5 9 9 6 5 7 7 6 7 6 4 2 0 -1 -2 -3 -3 -3 -3 -4 -3 -3 -3 -2 -2 -2 -3 -2 -3 -3 -3 -2 -2 -2 -1 -1 0 1 1 1 0 0 -1 -1 -1 -2 -1 -1 -1 -1 -1 -1 -1 -2 -2 -2 -3 -3 -3 -3 -2 -3 -4 -2 -1 0 -1 -2 -3 -4 -4 -3 -3 -3 -3 -3 -4 -4 -3 -3 -4 -5 -4 -4 -4 -4 -3 -3 -3 -3 -2 -3 -3 -3 -3 -2 -2 -2 -1 -1 0 1 0 0 0 0 -1 -2 -2 -1 -1 -1 0 1 1 2 3 3 2 3 1 0 0 -1 -1 -1 -1 -2 0 1 2 2 3 2 3 4 4 3 3 3 4 3 4 4 3 3 2 2 3 2 3 7 8 8 6 5 5 6 6 5 3 2 1 0 0 -1 -2 -1 0 0 0 1 2 3 3 2 -1 -3 -1 0 0 0 2 3 6 7 7 7 8 9 8 9 9 10 10 11 11 11 11 12 11 10 10 10 11 11 12 11 11 11 12 12 12 12 12 12 13 14 13 12 11 11 11 11 10 9 10 10 10 10 9 9 9 10 11 11 11 11 12 12 14 15 15 14 14 14 14 12 11 11 11 11 11 11 11 12 11 11 11 11 11 11 11 12 14 15 17 18 18 19 19 20 21 22 22 21 20 21 21 19 16 14 13 13 13 13 12 13 14 15 15 15 15 14 11 10 10 10 10 11 13 15 16 16 15 14 11 10 11 11 11 12 11 10 10 12 15 17 18 17 17 17 18 18 17 16 16 16 17 16 16 15 15 16 17 17 17 17 16 16 17 18 18 18 17 17 18 19 18 17 17 16 15 15 14 13 13 13 13 13 13 13 13 12 12 12 13 14 13 13 14 13 12 12 13 13 13 12 12 11 11 11 11 11 10 10 10 11 12 12 12 11 11 10 11 12 12 12 13 14 15 16 17 17 17 17 17 18 17 17 16 16 16 15 16 16 17 17 16 17 17 18 18 18 18 17 16 16 15 14 14 15 14 15 17 18 19 19 18 18 17 16 15 16 17 16 15 15 16 17 16 16 17 18 17 16 16 16 15 14 13 11 9 8 9 10 10 9 8 8 8 7 7 5 3 3 2 2 2 3 5 6 7 6 6 5 3 2 1 0 0 0 1 2 2 1 1 1 2 2 3 5 5 5 5 5 4 5 6 6 6 6 5 5 6 5 4 4 3 3 4 5 6 6 6 5 5 0 0 0 0 0 -9 -9 -9 -9 -9 -9 -9 -9 -9 -9 -9 -9 -9 -9 -9 -9 -9 -9 -9 -9 -9 -9 -9 -9 -9 -9 -9 -9 -9 -9 -9 -9 -9 -9 -9 -9 -9 -9 -9 -9 -9 -9 -9 -9 -9 -9 -9 -9 -9 -9 -9 -9 -9 -9 -9 -9 -9 -9 -9 -9 -9 -9 -9 -9 -9 -9 -9 -9 -9 -9 -9 -9 -9 -9 -9 -9 -9 -9 -9 -9 -9 -9 -9 -9 -9 -9 -9 -9 -9 -9 -9 -9 -9 -9 -9 -9 -9 -9 -9 -9 -9 -9 -9 -9 -9 -9 -9 -9 -9 -9 -9 -9 -9 -9 -9 -9 -9 -9 -9 -9 -9 -9 -9 -9 -9 -9 -9 -9 -9 -9 -9 -9 -9 -9 -9 -9 -9 -9 -9 -9 -9 -9 -9 -9 -9 -9 -9 -9 -9 -9 -9 -9 -9 -9 -9 -9 -9 -9 -9 -9 -9 -9 -9 -9 -9 -9 -9 -9 -9 -9 -9 -9 -9 -9 -9 -9 -9 -9 -9 -9 -9 -9 -9 -9 -9 -9 -9 -9 -9 -9 -9 -9 -9 -9 -9 -9 -9 -9 -9 -9 -9 -9 -9 -9 -9 -9 -9 -9 -9 -9 -9 -9 -9 -9 -9 -9 -9 -9 -9 -9 -9 -9 -9 -9 -9 -9 -9 -9 -9 -9 -9 -9 -9 -9 -9 -9 -9 -9 -9 -9 -9 -9 -9 -9 -9 -9 -9 -9 -9 -9 -9 -9 -9 -9 -9 -9 -9 -9 -9 -9 -9 -9 -9 -9 -9 -9 -9 -9 -9 -9 -9 -9 -9 -9 -9 -9 -9 -9 -9 -9 -9 -9 -9 -9 -9 -9 -9 -9 -9 -9 -9 -9 -9 -9 -9 -9 -9 -9 -9 -9 -9 -9 -9 -9 -9 -9 -9 -9 -9 -9 -9 -9 -9 -9 -9 -9 -9 -9 -9 -9 -9 -9 -9 -9 -9 -9 -9 -9 -9 -9 -9 -9 -9 -9 -9 -9 -9 -9 -9 -9 -9 -9 -9 -9 -9 -9 -9 -9 -9 -9 -9 -9 -9 -9 -9 -9 -9 -9 -9 -9 -9 -9 -9 -9 -9 -9 -9 -9 -9 -9 -9 -9 -9 -9 -9 -9 -9 -9 -9 -9 -9 -9 -9 -9 -9 -9 -9 -9 -9 -9 -9 -9 -9 -9 -9 -9 -9 -9 -9 -9 -9 -9 -9 -9 -9 -9 -9 -9 -9 -9 -9 -9 -9 -9 -9 -9 -9 -9 -9 -9 -9 -9 -9 -9 -9 -9 -9 -9 -9 -9 -9 -9 -9
-9 -9 -9 -9 -9 21 21 21 20 20 20 20 20 19 18 19 20 21 22 22 21 20 19 19 19 18 18 15 15 18 24 28 24 20 17 15 15 15 16 15 14 14 15 15 13 12 11 11 12 13 13 11 7 5 4 3 3 5 8 7 6 6 6 5 3 3 4 4 2 1 0 -2 -1 -2 -2 -3 -3 -3 -3 -3 -3 -3 -2 -2 -2 -1 -1 -1 -1 -2 -2 -2 -2 -1 0 0 1 0 -1 -1 -1 0 2 2 2 1 1 0 -1 -2 -2 -1 0 -1 -2 -2 -1 -2 0 2 3 3 3 2 0 -1 -1 -1 -1 -1 -2 -3 -3 -3 -3 -4 -4 -3 -3 -3 -3 -4 -5 -4 -4 -4 -4 -3 -3 -2 -2 -2 -3 -4 -4 -4 -3 -2 -3 -3 -4 -4 -2 -1 -2 -4 -3 -3 -4 -4 -5 -5 -4 -2 -1 -2 -2 -2 -1 -2 -2 -2 -2 -2 -2 -2 -2 -3 -3 -3 -2 -1 0 1 1 2 3 3 3 3 3 2 3 3 2 3 2 1 2 4 6 8 11 11 9 8 8 9 10 10 9 8 6 2 -1 -2 -2 -2 0 1 2 3 4 4 4 2 0 -1 -2 -2 -1 0 2 3 2 4 4 5 8 8 8 8 8 8 9 11 11 11 11 11 11 10 9 9 10 10 10 11 10 10 10 10 10 11 11 11 12 12 12 12 11 11 10 9 9 9 9 9 10 11 12 11 10 11 11 11 11 12 12 13 14 15 16 17 16 14 13 13 13 12 11 12 11 10 11 12 13 13 11 12 13 12 12 13 13 15 16 17 17 17 18 19 20 20 21 21 20 19 18 19 18 16 15 16 15 14 13 12 11 11 13 14 15 14 13 11 9 9 9 10 12 14 16 17 16 16 15 13 12 11 11 11 10 10 9 9 10 13 16 17 16 16 17 18 18 18 18 17 17 17 17 16 15 16 17 19 20 19 18 17 18 18 17 17 17 17 17 17 18 18 17 17 16 14 13 14 14 13 14 14 14 14 14 13 13 13 13 14 14 14 13 12 12 11 13 13 12 11 10 10 10 9 9 10 10 10 10 10 10 11 11 12 13 12 11 11 12 13 14 16 17 18 18 18 18 17 17 17 17 18 17 18 18 16 16 16 16 17 17 18 17 17 17 16 17 17 16 16 17 16 15 15 15 15 17 19 20 20 20 18 18 16 16 17 18 19 19 18 17 16 17 17 17 19 20 20 19 19 18 17 15 12 10 9 7 7 8 8 7 7 5 4 3 3 3 4 4 3 2 1 2 3 4 5 5 5 5 3 2 1 1 1 2 3 2 3 3 3 4 4 5 6 8 9 8 7 6 6 7 7 8 7 7 8 9 8 6 5 4 4 3 4 5 6 5 6 6 5 0 0 0 0 0 -9 -9 -9 -9 -9 -9 -9 -9 -9 -9 -9 -9 -9 -9 -9 -9 -9 -9 -9 -9 -9 -9 -9 -9 -9 -9 -9 -9 -9 -9 -9 -9 -9 -9 -9 -9 -9 -9 -9 -9 -9 -9 -9 -9 -9 -9 -9 -9 -9 -9 -9 -9 -9 -9 -9 -9 -9 -9 -9 -9 -9 -9 -9 -9 -9 -9 -9 -9 -9 -9 -9 -9 -9 -9 -9 -9 -9 -9 -9 -9 -9 -9 -9 -9 -9 -9 -9 -9 -9 -9 -9 -9 -9 -9 -9 -9 -9 -9 -9 -9 -9 -9 -9 -9 -9 -9 -9 -9 -9 -9 -9 -9 -9 -9 -9 -9 -9 -9 -9 -9 -9 -9 -9 -9 -9 -9 -9 -9 -9 -9 -9 -9 -9 -9 -9 -9 -9 -9 -9 -9 -9 -9 -9 -9 -9 -9 -9 -9 -9 -9 -9 -9 -9 -9 -9 -9 -9 -9 -9 -9 -9 -9 -9 -9 -9 -9 -9 -9 -9 -9 -9 -9 -9 -9 -9 -9 -9 -9 -9 -9 -9 -9 -9 -9 -9 -9 -9 -9 -9 -9 -9 -9 -9 -9 -9 -9 -9 -9 -9 -9 -9 -9 -9 -9 -9 -9 -9 -9 -9 -9 -9 -9 -9 -9 -9 -9 -9 -9 -9 -9 -9 -9 -9 -9 -9 -9 -9 -9 -9 -9 -9 -9 -9 -9 -9 -9 -9 -9 -9 -9 -9 -9 -9 -9 -9 -9 -9 -9 -9 -9 -9 -9 -9 -9 -9 -9 -9 -9 -9 -9 -9 -9 -9 -9 -9 -9 -9 -9 -9 -9 -9 -9 -9 -9 -9 -9 -9 -9 -9 -9 -9 -9 -9 -9 -9 -9 -9 -9 -9 -9 -9 -9 -9 -9 -9 -9 -9 -9 -9 -9 -9 -9 -9 -9 -9 -9 -9 -9 -9 -9 -9 -9 -9 -9 -9 -9 -9 -9 -9 -9 -9 -9 -9 -9 -9 -9 -9 -9 -9 -9 -9 -9 -9 -9 -9 -9 -9 -9 -9 -9 -9 -9 -9 -9 -9 -9 -9 -9 -9 -9 -9 -9 -9 -9 -9 -9 -9 -9 -9 -9 -9 -9 -9 -9 -9 -9 -9 -9 -9 -9 -9 -9 -9 -9 -9 -9 -9 -9 -9 -9 -9 -9 -9 -9 -9 -9 -9 -9 -9 -9 -9 -9 -9 -9 -9 -9 -9 -9 -9 -9 -9 -9 -9 -9 -9 -9 -9 -9 -9 -9 -9 -9 -9 -9 -9 -9 -9 -9 -9 -9 -9 -9 -9 -9 -9 -9 -9 -9 -9 -9 -9 -9 -9
-9 -9 -9 -9 -9 25 24 24 24 23 23 23 22 21 21 22 23 23 23 22 22 22 21 20 19 20 19 18 21 25 24 22 17 14 13 13 15 15 16 16 16 17 17 16 17 16 14 12 10 9 10 9 7 6 5 5 6 7 9 9 10 10 9 6 4 3 3 3 3 2 1 1 0 -1 -2 -3 -3 -2 -2 -1 -2 -3 -2 -1 0 0 1 1 2 2 3 2 2 1 2 1 1 -1 -1 0 0 1 1 2 2 1 0 1 0 0 -1 0 1 0 0 0 -1 -1 1 4 5 5 4 2 0 -2 -3 -3 -3 -4 -4 -4 -3 -3 -4 -4 -5 -5 -5 -3 -3 -3 -3 -4 -4 -4 -3 -2 -2 -1 -3 -5 -4 -3 -3 -3 -2 -2 -3 -4 -4 -4 -3 -3 -2 -2 -2 -2 -3 -4 -3 -3 -3 -3 -3 -3 -3 -3 -4 -4 -3 -3 -3 -2 0 0 -2 -3 -3 -3 -3 -3 -4 -2 0 1 2 2 2 3 3 2 2 2 1 1 2 2 2 3 6 10 13 14 14 13 13 13 13 13 11 9 8 5 3 2 1 0 0 3 6 7 7 7 5 3 3 1 0 1 3 4 3 2 2 3 1 2 4 8 9 7 6 7 7 8 9 9 9 9 10 9 8 8 8 9 10 10 11 10 10 11 11 12 12 11 11 10 10 10 9 9 10 9 8 8 8 9 9 9 10 10 10 11 12 12 12 13 13 13 14 15 17 18 16 15 15 15 14 14 13 14 13 11 10 11 12 13 13 14 14 14 14 15 15 16 17 17 17 18 18 19 19 19 19 19 18 19 20 20 19 18 17 16 14 13 12 11 10 9 10 11 11 11 11 11 10 9 10 10 12 14 14 15 15 14 12 12 11 10 10 9 10 11 10 9 11 13 14 15 16 17 17 17 17 17 17 16 16 16 15 15 16 16 18 20 21 20 19 18 19 19 18 16 15 17 17 17 17 16 17 17 17 17 15 14 15 15 14 13 13 13 13 13 13 13 14 15 15 14 13 13 12 12 11 11 11 10 9 9 9 10 10 10 10 10 10 11 11 10 10 11 12 12 11 12 13 15 16 17 18 17 16 15 16 16 16 16 16 17 17 16 16 15 15 16 16 16 17 16 16 16 16 16 17 17 17 16 16 16 15 14 14 16 18 19 19 20 19 17 17 16 16 17 18 18 19 20 20 20 20 20 19 20 20 20 19 18 18 18 15 12 10 9 7 5 4 3 2 2 1 1 1 2 2 3 3 2 1 0 1 2 4 5 6 5 4 3 3 2 1 0 1 2 2 4 6 6 6 6 7 7 8 8 8 8 7 7 8 9 10 10 10 10 10 8 6 5 5 5 4 4 4 4 4 4 4 4 0 0 0 0 0 -9 -9 -9 -9 -9 -9 -9 -9 -9 -9 -9 -9 -9 -9 -9 -9 -9 -9 -9 -9 -9 -9 -9 -9 -9 -9 -9 -9 -9 -9 -9 -9 -9 -9 -9 -9 -9 -9 -9 -9 -9 -9 -9 -9 -9 -9 -9 -9 -9 -9 -9 -9 -9 -9 -9 -9 -9 -9 -9 -9 -9 -9 -9 -9 -9 -9 -9 -9 -9 -9 -9 -9 -9 -9 -9 -9 -9 -9 -9 -9 -9 -9 -9 -9 -9 -9 -9 -9 -9 -9 -9 -9 -9 -9 -9 -9 -9 -9 -9 -9 -9 -9 -9 -9 -9 -9 -9 -9 -9 -9 -9 -9 -9 -9 -9 -9 -9 -9 -9 -9 -9 -9 -9 -9 -9 -9 -9 -9 -9 -9 -9 -9 -9 -9 -9 -9 -9 -9 -9 -9 -9 -9 -9 -9 -9 -9 -9 -9 -9 -9 -9 -9 -9 -9 -9 -9 -9 -9 -9 -9 -9 -9 -9 -9 -9 -9 -9 -9 -9 -9 -9 -9 -9 -9 -9 -9 -9 -9 -9 -9 -9 -9 -9 -9 -9 -9 -9 -9 -9 -9 -9 -9 -9 -9 -9 -9 -9 -9 -9 -9 -9 -9 -9 -9 -9 -9 -9 -9 -9 -9 -9 -9 -9 -9 -9 -9 -9 -9 -9 -9 -9 -9 -9 -9 -9 -9 -9 -9 -9 -9 -9 -9 -9 -9 -9 -9 -9 -9 -9 -9 -9 -9 -9 -9 -9 -9 -9 -9 -9 -9 -9 -9 -9 -9 -9 -9 -9 -9 -9 -9 -9 -9 -9 -9 -9 -9 -9 -9 -9 -9 -9 -9 -9 -9 -9 -9 -9 -9 -9 -9 -9 -9 -9 -9 -9 -9 -9 -9 -9 -9 -9 -9 -9 -9 -9 -9 -9 -9 -9 -9 -9 -9 -9 -9 -9 -9 -9 -9 -9 -9 -9 -9 -9 -9 -9 -9 -9 -9 -9 -9 -9 -9 -9 -9 -9 -9 -9 -9 -9 -9 -9 -9 -9 -9 -9 -9 -9 -9 -9 -9 -9 -9 -9 -9 -9 -9 -9 -9 -9 -9 -9 -9 -9 -9 -9 -9 -9 -9 -9 -9 -9 -9 -9 -9 -9 -9 -9 -9 -9 -9 -9 -9 -9 -9 -9 -9 -9 -9 -9 -9 -9 -9 -9 -9 -9 -9 -9 -9 -9 -9 -9 -9 -9 -9 -9 -9 -9 -9 -9 -9 -9 -9 -9 -9 -9 -9 -9 -9 -9 -9 -9 -9 -9 -9 -9 -9 -9 -9 -9 -9 -9 -9 -9 -9 -9 -9 -9 -9 -9 -9 -9 -9 -9
