ncols        178
nrows        72
xllcorner    9.303472223000
yllcorner    54.124027778000
dx           0.005029650438
dy           0.005015432111
 0.0 0 0 0 0 0 0 0 0 0 0 0 0 0 0 0 0 0 0 0 0 0 0 0 0 0 0 0 0 0 0 0 0 0 0 0 0 0 0 0 0 0 0 0 0 0 0 0 0 0 0 0 0 0 0 0 0 0 0 0 0 0 0 0 0 0 0 0 0 0 0 0 0 0 0 0 0 0 0 0 0 0 0 0 0 0 0 0 0 0 0 0 0 0 0 0 0 0 0 0 0 0 0 0 0 0 0 0 0 0 0 0 0 0 0 0 0 0 0 0 0 0 0 0 0 0 0 0 0 0 0 0 0 0 0 0 0 0 0 0 0 0 0 0 0 0 0 0 0 0 0 0 0 0 0 0 0 0 0 0 0 0 0 0 0 0 0 0 0 0 0 0 0 0 0 0 0 0
 0 0 0 0 0 0 0 0 0 0 0 0 0 0 0 0 0 0 0 0 0 0 0 0 0 0 0 0 0 0 0 0 0 0 0 0 0 0 0 0 0 0 0 0 0 0 0 0 0 0 0 0 0 0 0 0 0 0 0 0 0 0 0 0 0 0 0 0 0 0 0 0 0 0 0 0 0 0 0 0 0 0 0 0 0 0 0 0 0 0 0 0 0 0 0 0 0 0 0 0 0 0 0 0 0 0 0 0 0 0 0 0 0 0 0 0 0 0 0 0 0 0 0 0 0 0 0 0 0 0 0 0 0 0 0 0 0 0 0 0 0 0 0 0 0 0 0 0 0 0 0 0 0 0 0 0 24 28 29 44 48 35 36 33 32 29 27 23 0 0 0 0 0 0 0 0 0 0
 0 0 0 0 0 0 0 0 0 0 0 0 0 0 0 0 0 0 0 0 0 0 0 0 0 0 0 0 0 0 0 0 0 0 0 0 0 0 0 0 0 0 0 0 0 0 0 0 0 0 0 0 0 0 0 0 0 0 0 0 0 0 0 0 0 0 0 0 0 0 0 0 0 0 0 0 0 0 0 0 0 0 0 0 0 0 0 0 0 0 0 0 0 0 0 0 0 0 0 0 0 0 0 0 0 0 0 0 0 0 0 0 0 0 0 0 0 0 0 0 0 0 0 0 0 0 0 0 0 0 0 0 0 0 0 0 0 0 0 0 0 0 0 0 0 0 0 0 19 20 22 24 23 29 29 32 34 27 31 40 39 42 34 34 37 36 31 27 28 25 0 0 0 0 0 0 0 0
 0 0 0 0 0 0 0 0 0 0 0 0 0 0 0 0 0 0 0 0 0 0 0 0 0 0 0 0 0 0 0 0 0 0 0 0 0 0 0 0 0 0 0 0 0 0 0 0 0 0 0 0 0 0 0 0 0 0 0 0 0 0 0 0 0 0 0 0 0 0 0 0 0 0 0 0 0 0 0 0 0 0 0 0 0 0 0 0 0 0 0 0 0 0 0 0 0 0 0 0 0 0 0 0 0 0 0 0 0 0 0 0 0 0 0 0 0 0 0 0 0 0 0 0 0 0 0 0 0 0 0 0 0 0 0 0 0 0 0 14 14 16 15 14 16 19 23 21 28 27 26 22 26 26 27 33 37 37 33 33 37 38 42 54 33 27 22 24 27 23 19 17 0 0 0 0 0 0
 0 0 0 0 0 0 0 0 0 0 0 0 0 0 0 0 0 0 0 0 0 0 0 0 0 0 0 0 0 0 0 0 0 0 0 0 0 0 0 0 0 0 0 0 0 0 0 0 0 0 0 0 0 0 0 0 0 0 0 0 0 0 0 0 0 0 0 0 0 0 0 0 0 0 0 0 0 0 0 0 0 0 0 0 0 0 0 0 32 22 13 6 11 13 18 19 13 9 13 14 23 10 11 16 18 12 7 0 0 0 0 0 0 0 0 0 0 0 0 0 0 0 0 0 0 0 0 0 0 0 0 0 0 0 27 31 29 31 36 30 32 24 39 38 26 28 32 33 31 33 36 36 36 35 35 34 33 24 27 28 28 34 31 27 26 24 20 23 25 20 17 17 15 0 0 0 0 0
 7 -1 -3 -4 -1 0 1 3 -3 1 0 -1 -2 -3 0 0 0 0 0 2 2 2 2 3 4 4 5 6 9 9 8 9 10 12 12 10 13 18 16 15 17 17 18 19 18 19 19 20 17 16 16 18 19 23 23 22 18 27 19 20 22 22 23 27 27 25 24 25 22 26 29 37 40 50 26 18 23 13 6 3 10 0 1 6 15 19 25 23 23 15 21 24 19 19 23 28 28 27 9 15 12 26 26 18 22 12 29 21 0 0 0 0 0 0 0 0 0 0 0 0 0 0 0 0 0 0 0 0 13 14 11 16 27 26 21 19 24 24 28 32 37 37 41 39 51 42 44 37 40 43 40 36 37 39 41 44 43 45 44 28 32 29 24 23 21 15 20 21 21 18 17 21 21 14 7 18 0 0
 0 -2 -2 -2 -2 -1 -2 -2 1 -1 -1 -1 1 -1 -1 -1 0 -1 1 3 2 3 4 5 4 4 3 3 6 6 7 8 10 11 11 11 12 13 14 17 18 21 20 16 17 17 18 15 16 15 15 16 20 24 23 23 19 21 21 22 22 26 27 26 24 24 23 25 22 25 34 57 67 56 46 31 36 19 6 6 11 1 -2 1 14 18 18 21 20 15 18 16 18 17 20 19 19 18 26 20 21 27 23 22 26 23 21 27 12 1 0 0 0 0 0 0 0 0 0 0 0 0 7 11 4 7 3 3 14 4 14 28 25 18 33 21 24 21 21 22 26 32 29 32 32 34 33 29 34 32 36 40 36 38 48 37 39 43 45 38 31 29 24 20 13 12 15 18 17 17 15 15 15 9 10 7 -1 0
 -3 -2 -3 -1 -1 -2 -2 1 2 -1 -3 -3 -1 -1 2 1 1 4 5 7 8 8 8 9 11 6 6 6 8 11 12 11 11 16 17 18 17 19 17 19 20 21 19 17 15 16 20 15 18 15 16 16 17 19 17 21 23 25 28 28 28 27 24 24 24 27 31 26 32 38 56 75 67 50 43 33 24 14 15 11 6 -2 -1 22 18 20 22 28 24 13 13 13 13 17 19 20 20 19 33 20 25 37 26 24 28 27 28 26 23 4 0 3 7 14 32 37 30 33 34 30 28 24 22 17 22 12 11 17 11 11 19 13 12 12 29 17 13 15 20 17 20 20 24 25 29 21 24 24 27 35 31 32 43 41 40 38 44 37 31 25 22 17 23 17 20 19 24 28 20 9 13 8 10 6 0 0 0 0
 -2 -2 -2 -2 -1 2 -2 -1 -1 2 4 2 3 4 2 4 3 4 6 5 6 8 8 10 9 10 11 13 11 11 12 14 14 15 15 16 17 15 16 18 18 15 17 17 17 15 15 13 13 15 14 19 13 14 14 16 22 26 27 23 28 26 25 24 45 51 27 28 39 75 86 84 58 43 35 29 27 29 13 13 12 6 0 8 20 23 15 20 15 10 11 12 12 17 17 15 17 18 21 35 22 23 29 22 25 28 31 23 12 -3 8 22 4 17 7 7 9 25 19 10 4 12 13 22 19 16 15 13 13 14 21 24 15 15 10 7 12 12 17 19 18 19 20 19 22 21 18 22 40 36 38 32 42 42 35 51 25 22 18 19 18 21 23 17 19 22 23 22 21 15 13 25 1 4 0 0 0 0
 -2 -3 -2 -2 -2 -2 -1 -3 -2 -2 1 2 4 3 2 3 3 3 5 5 6 6 8 9 11 10 8 11 11 10 12 13 13 15 13 16 14 16 15 18 18 19 20 20 15 16 14 14 16 14 15 15 14 15 13 17 18 20 24 27 24 26 24 23 24 24 23 29 36 69 81 78 52 66 52 43 51 31 25 4 8 4 7 10 24 21 22 21 19 27 10 12 15 18 18 18 18 18 23 20 19 23 25 32 27 24 20 5 -2 -2 5 18 14 2 11 8 12 7 6 24 10 16 19 19 25 25 21 22 15 14 17 20 15 14 20 18 8 9 14 13 15 17 18 20 15 15 22 24 20 26 30 30 36 31 28 21 22 15 18 21 24 22 23 21 18 21 23 23 15 10 11 7 3 4 0 0 0 0
 -4 -1 -2 -2 -2 1 -1 -1 -3 -1 -2 1 4 5 4 2 4 4 6 4 6 6 8 6 8 9 10 10 10 9 12 15 13 14 14 15 15 15 15 22 16 16 16 17 15 16 15 14 15 13 14 14 14 15 13 15 16 16 17 22 20 23 21 24 28 23 29 26 56 75 107 89 71 60 61 57 46 40 40 11 7 5 2 12 24 25 20 13 17 30 22 21 19 17 22 19 20 24 24 27 29 20 34 33 24 25 10 1 -2 -3 -1 -4 10 17 9 35 30 12 13 22 25 23 23 23 16 23 28 32 26 21 18 15 30 17 21 35 20 15 10 16 15 21 17 19 14 16 16 32 20 22 28 24 27 26 20 22 16 22 17 21 23 28 25 25 19 13 9 9 6 2 -1 -3 0 0 0 0 0 0
 -2 -4 -2 -1 0 0 -1 1 0 -2 -1 -3 -1 4 2 2 3 4 4 4 6 7 9 9 8 9 8 10 9 10 11 14 12 14 14 15 15 18 19 23 20 17 18 18 19 14 16 15 16 11 12 13 16 14 17 17 16 15 16 14 14 17 16 21 30 36 39 26 32 82 85 110 86 64 63 64 52 42 32 32 3 1 16 28 20 20 21 22 20 18 18 14 34 21 20 24 18 21 26 27 21 38 38 40 34 20 7 6 2 -4 -1 5 11 12 7 19 26 21 30 30 20 24 18 15 18 21 24 23 24 26 27 28 27 32 20 20 26 13 14 14 12 16 16 18 14 15 19 18 18 21 21 23 27 24 18 20 22 23 16 18 21 19 17 9 9 10 2 7 7 -2 2 3 3 0 0 0 0 0
 -1 -2 -3 -2 -2 -2 -2 -3 -2 -1 -2 -2 -2 1 4 3 3 3 3 6 5 7 6 7 10 9 9 9 11 12 13 12 12 12 12 13 13 14 14 14 16 15 15 16 16 14 17 22 18 13 13 15 15 18 16 18 23 16 15 15 13 12 12 14 17 16 28 30 45 55 61 76 76 57 36 66 51 37 33 37 3 12 24 21 15 21 22 23 25 23 28 25 23 26 32 18 17 15 14 21 26 36 44 47 35 23 18 17 6 7 1 19 12 14 19 25 20 26 16 14 16 22 20 21 15 16 15 18 19 17 17 24 33 27 20 20 17 14 16 13 15 17 18 19 20 21 20 19 18 15 18 26 21 16 17 23 22 18 16 15 17 18 13 10 12 6 11 13 3 9 9 14 15 9 0 0 0 0
 -2 -2 -3 -2 -1 -3 -3 -2 -1 -2 -3 -3 -3 -2 1 0 1 3 4 2 4 5 5 8 7 7 7 8 10 11 12 11 10 13 11 11 12 13 12 16 14 14 16 13 16 13 12 13 13 11 12 12 14 13 12 12 12 13 13 16 13 13 17 14 17 24 36 49 85 79 82 56 56 34 29 56 77 86 67 36 40 36 17 18 21 20 21 26 25 34 21 25 27 25 16 16 13 16 20 25 27 40 45 40 38 38 29 25 25 22 24 12 12 18 18 18 16 13 13 17 16 19 28 28 27 22 18 13 13 16 18 20 23 23 20 19 17 16 19 21 22 21 23 21 20 18 17 23 19 24 28 31 32 28 23 20 20 14 16 14 15 9 5 10 13 16 11 13 -1 10 20 21 26 25 0 0 0 0
 -1 -2 -3 -4 -3 -1 -3 -2 -2 -2 -2 -2 -3 -1 2 4 4 2 2 4 3 4 5 6 6 6 8 7 7 10 9 10 10 9 11 15 12 12 16 14 15 17 16 14 15 19 13 13 12 11 12 12 14 14 11 11 10 12 10 10 14 14 16 17 22 22 32 57 71 66 52 47 31 24 26 57 72 70 36 26 42 35 31 25 21 19 21 34 25 22 22 23 21 17 13 13 25 22 23 45 60 36 29 30 42 53 38 40 36 26 12 18 22 20 25 19 12 13 11 15 16 17 16 19 21 21 17 16 15 15 16 22 18 21 29 22 17 18 16 19 19 20 23 26 26 26 26 24 19 16 20 19 19 16 20 20 18 17 14 19 16 10 11 14 14 19 24 11 25 20 18 18 20 19 21 12 0 0
 5 4 -2 -3 -2 -4 -3 -2 -4 -3 -3 -3 -3 -2 0 4 2 1 2 2 2 3 5 6 7 6 7 7 8 7 7 7 8 10 10 13 14 14 13 14 14 15 15 19 20 22 20 10 12 11 10 13 11 12 10 9 9 11 10 11 15 14 20 16 15 17 20 35 39 39 30 35 42 42 39 21 23 24 20 20 23 27 29 23 22 25 24 30 32 32 31 20 14 8 10 8 12 21 32 36 28 34 22 29 44 54 52 49 44 33 20 31 32 19 14 15 13 16 14 18 17 19 16 15 13 14 13 13 19 13 11 16 23 26 26 26 23 23 25 19 22 21 18 19 16 16 22 20 20 18 18 17 18 20 26 23 25 16 14 18 15 17 18 18 21 23 43 19 19 20 19 13 15 16 19 17 0 0
 17 9 -1 -2 -3 -3 -3 -4 -2 -4 -3 -2 -3 0 -1 0 2 1 2 0 3 3 3 3 6 5 7 6 5 7 9 9 9 9 10 12 12 16 14 25 15 18 20 14 18 21 23 22 11 9 9 10 17 11 11 12 10 11 12 15 13 12 10 14 11 16 20 29 21 20 20 17 18 15 15 17 18 16 14 13 18 22 27 28 23 21 20 28 30 26 16 17 11 3 3 9 21 32 53 42 22 20 27 40 40 40 35 40 37 23 33 22 24 19 14 31 23 15 12 14 17 17 22 16 15 12 14 17 12 17 17 19 14 16 21 24 24 23 20 21 22 22 19 18 18 18 17 16 18 19 20 16 17 36 43 41 27 24 21 21 23 23 25 22 27 23 25 27 30 24 17 17 13 20 10 14 0 0
 14 19 -2 -3 -2 -3 -5 -3 -3 -3 -4 -3 -2 -4 -1 1 1 1 2 2 3 3 4 4 5 3 5 3 4 6 7 10 7 9 9 10 11 16 10 20 23 22 18 18 15 16 19 21 26 11 12 12 11 14 14 12 13 12 8 5 5 10 12 11 9 13 16 16 17 23 26 21 21 17 27 17 15 11 15 15 14 20 23 24 24 23 19 19 16 10 3 3 3 3 3 3 9 23 38 16 18 13 16 16 25 25 17 20 20 23 17 18 17 18 18 24 16 21 18 16 13 15 14 10 10 13 14 12 15 18 20 19 22 21 17 18 18 16 19 18 18 16 21 18 17 15 14 13 14 19 18 31 23 35 20 25 30 21 23 23 23 24 22 23 24 36 20 8 19 22 27 19 12 12 1 4 0 0
 32 8 -2 -3 -2 -2 -4 -3 -3 -3 -2 -2 -3 -2 -2 -2 0 1 2 0 4 3 1 2 2 2 5 4 4 3 6 5 8 9 7 9 8 8 8 9 10 11 17 13 13 14 10 21 20 22 14 15 15 13 15 12 12 12 11 11 9 6 6 10 11 10 15 11 13 16 28 23 24 31 15 12 11 11 28 15 15 19 19 18 17 12 12 3 3 3 3 3 3 3 3 3 3 3 5 6 11 8 3 7 5 9 19 18 17 13 17 14 13 13 16 32 31 27 22 19 14 12 11 9 8 15 16 16 15 13 15 18 16 21 21 18 22 26 23 17 16 16 21 16 18 18 19 17 14 16 16 17 18 15 14 16 25 17 18 21 21 22 20 25 28 27 28 19 16 19 9 12 11 7 2 2 0 0
 30 18 -2 -3 -2 -1 -2 -3 -2 -2 -3 -2 -2 -3 -3 -2 1 2 2 1 1 1 0 0 3 3 4 4 4 7 6 6 7 8 8 7 7 6 7 8 9 10 10 10 10 14 13 17 25 19 14 17 16 15 18 10 12 14 13 6 7 4 9 6 8 7 9 6 11 18 28 17 10 14 11 11 15 16 18 34 23 26 23 20 11 3 3 3 3 3 3 3 3 3 3 3 3 3 6 12 11 6 2 4 18 18 18 14 15 15 11 10 5 9 12 28 31 20 13 13 10 21 23 23 14 10 12 15 14 14 15 19 15 16 17 18 18 22 20 18 30 23 15 20 15 14 12 15 11 15 14 18 17 8 11 14 23 14 16 15 16 19 29 28 26 29 25 28 18 2 9 3 0 0 0 0 0 0
 32 6 5 -1 -4 -3 -2 -3 -3 -3 -3 -3 -3 -2 -2 -2 -2 -1 1 0 0 0 -1 -1 2 5 2 2 5 3 4 6 4 5 4 6 7 8 7 8 8 8 8 8 9 15 22 24 21 22 20 14 12 14 11 10 13 15 11 9 9 2 4 4 8 8 7 6 10 13 14 13 11 12 11 18 49 51 33 33 32 18 11 9 3 3 3 3 3 3 3 3 3 3 7 7 3 3 3 1 3 5 12 15 11 14 8 8 13 15 9 9 5 7 21 25 15 11 8 5 7 10 11 18 14 14 18 20 17 17 18 18 20 19 23 18 18 19 20 22 34 17 16 18 16 16 13 14 13 14 13 10 11 5 6 19 16 14 14 22 20 17 20 23 24 28 30 27 24 7 0 0 0 0 0 0 0 0
 34 23 19 6 2 -1 -3 -3 -3 -3 -3 -2 -2 -2 -1 -1 -2 -1 0 -1 0 0 0 3 2 3 5 3 3 3 3 4 5 4 6 5 5 6 6 6 7 6 7 6 6 7 10 11 23 19 26 24 12 12 11 12 12 23 10 10 9 12 3 3 2 4 3 5 3 6 10 14 12 24 40 52 66 49 42 39 35 23 16 7 3 3 3 3 3 3 3 3 10 15 18 18 14 14 11 2 9 15 15 12 4 5 4 2 6 8 5 3 4 7 8 8 14 10 4 8 7 10 16 17 17 25 19 16 14 19 17 17 16 16 19 16 16 14 14 23 20 20 15 16 14 12 10 10 14 22 12 7 9 4 13 15 8 13 14 17 17 19 18 22 24 22 22 23 23 25 1 0 0 0 0 0 0 0
 17 6 2 -1 4 1 -3 -3 -3 -3 -3 -4 -2 -3 -3 -3 -4 -3 -3 -1 0 -1 0 0 1 0 2 1 2 4 4 4 4 5 4 3 6 5 4 4 5 5 4 4 4 5 3 5 5 7 7 5 5 5 4 6 6 5 6 5 9 6 6 4 0 1 1 2 3 3 3 10 15 29 45 44 72 49 45 33 22 16 13 8 8 6 4 3 3 10 14 16 20 22 23 25 15 7 6 10 17 16 15 4 2 0 10 14 23 21 17 5 3 5 3 5 9 5 17 20 23 18 18 15 28 27 30 15 14 18 18 16 16 16 20 18 15 17 18 18 21 21 17 12 11 11 8 14 11 9 12 10 29 7 12 13 9 0 0 3 6 15 18 23 17 16 18 26 27 2 0 0 0 0 0 0 0 0
 -2 -4 -3 -3 -2 -3 -3 -2 -4 -2 -4 -4 -4 -3 -5 -4 -4 -3 -3 -2 -2 -3 -1 0 -1 0 -1 0 -1 0 -1 0 0 0 1 1 1 1 2 2 2 4 2 4 4 3 3 4 3 4 5 7 5 5 5 4 5 4 4 5 4 6 4 2 1 1 0 3 4 5 8 10 20 39 48 57 64 58 49 38 24 16 12 5 4 13 12 12 7 15 17 15 22 18 19 23 21 17 9 13 14 9 7 7 1 10 9 15 22 19 15 16 16 5 4 2 4 21 17 14 14 15 12 14 12 21 26 14 18 21 20 18 21 16 15 13 16 17 14 15 19 17 19 19 16 12 13 17 19 8 12 8 15 20 27 28 28 28 34 22 20 26 20 1 0 0 5 5 0 0 0 0 0 0 0 0 0 0
 -3 -3 -3 -4 -3 -3 -2 -4 -4 -5 -5 -2 -4 -3 -4 -3 -5 -3 -4 -4 -3 0 1 0 0 1 -1 -1 1 1 -1 1 0 -2 -1 -1 0 1 0 1 2 5 3 11 6 16 18 16 17 18 20 10 15 5 5 7 3 1 1 1 2 0 0 1 3 5 4 5 7 8 9 7 8 14 39 55 60 66 58 45 39 23 21 15 14 12 19 8 7 9 13 12 13 11 11 11 17 0 0 9 13 9 4 9 3 5 8 1 6 8 0 0 16 8 6 6 5 10 11 18 19 17 19 16 10 13 15 16 17 15 15 17 16 18 15 15 11 15 14 17 17 19 14 14 6 16 14 8 11 10 9 0 10 16 19 24 20 21 36 34 25 17 12 22 12 10 9 2 0 0 0 0 0 0 0 0 0 0
 -3 -4 -3 -3 -3 -3 -3 -3 -4 -3 -3 -3 -4 -4 -3 -3 -5 -5 -4 -3 -4 -2 -2 -2 0 -1 -2 1 0 0 0 0 3 2 2 2 2 3 3 4 9 11 9 12 15 14 15 8 15 14 8 14 15 8 5 5 0 6 5 7 6 6 5 5 5 6 6 7 6 8 7 5 5 6 11 21 34 46 34 37 16 10 13 14 11 14 14 7 6 9 10 11 10 5 0 17 13 11 6 8 14 11 8 7 2 0 6 13 11 7 18 21 13 9 0 10 7 14 16 16 17 18 16 15 11 12 15 16 16 12 18 16 16 16 17 17 16 12 9 10 0 11 14 14 13 9 11 8 8 7 6 8 12 8 15 18 18 21 24 23 27 24 19 13 15 10 5 0 0 0 0 0 0 0 0 0 0 0
 -3 -2 -2 -2 -3 -2 -2 -3 -2 -2 -3 -4 -4 -5 -4 -4 -1 -2 -3 -3 -4 -2 -1 0 -2 -1 -1 0 -2 0 2 2 1 2 1 0 2 5 5 7 12 7 18 0 -1 5 12 14 6 14 14 15 6 5 1 3 8 7 6 5 7 4 4 5 6 6 8 9 4 5 6 6 5 5 7 7 10 10 8 11 9 10 14 12 10 11 11 3 6 10 11 5 3 3 11 6 6 8 9 4 13 11 12 6 6 5 10 9 9 8 8 8 5 5 13 6 1 0 9 12 9 8 10 11 15 12 10 13 14 13 11 15 13 20 26 29 26 18 6 17 20 25 22 23 30 24 22 21 26 20 15 12 14 7 11 17 22 22 23 23 20 28 25 18 24 12 4 0 0 0 0 0 0 0 0 0 0 0
 -3 -3 -5 -3 -2 -3 -3 -3 -2 -3 -3 -2 -4 -4 -4 -4 4 7 3 4 1 -3 -2 -2 -3 -2 -3 -2 0 0 2 0 0 1 1 1 2 1 6 2 1 15 14 15 21 21 23 20 18 19 21 24 20 21 8 12 12 7 9 8 7 5 5 4 3 5 7 6 7 6 4 6 6 6 8 11 13 11 11 10 9 9 10 8 9 14 11 4 9 8 0 0 6 10 7 7 10 8 2 1 10 17 6 6 0 10 10 9 13 10 11 9 13 8 9 10 8 8 6 12 0 19 21 19 10 11 9 10 11 11 9 12 6 11 17 18 0 12 19 22 24 24 24 24 28 28 25 21 14 9 11 8 9 15 15 16 18 20 15 24 25 20 26 29 35 28 23 23 9 0 0 0 0 0 0 0 0 0
 -4 -4 -2 -3 -3 -2 -1 -3 -3 -6 -3 -2 -4 -3 -3 -1 4 4 -1 -1 -2 -2 -1 -3 -2 -1 -2 -2 -3 -1 -2 0 -1 0 0 -1 0 -1 -3 2 13 12 14 13 16 15 18 13 18 16 14 21 12 7 12 9 7 6 6 17 8 5 7 5 3 7 8 9 9 8 5 7 5 7 6 9 10 15 14 13 11 8 10 12 10 3 0 4 0 0 7 6 11 11 9 10 11 4 4 3 11 11 8 5 7 1 4 7 7 14 15 6 7 11 13 18 8 9 7 9 9 5 11 6 6 6 5 9 2 2 0 0 0 8 8 23 16 20 23 19 22 20 26 26 27 21 15 14 12 9 13 10 6 8 10 14 19 17 18 20 22 24 33 36 40 36 34 37 38 0 0 0 0 0 0 0 0 0
 -4 -3 -4 -4 -3 -2 -3 -3 -3 -4 -5 -2 -3 -3 -3 -4 -2 -3 -3 -2 -2 -2 -2 -3 0 0 -1 -1 -2 -2 -3 -2 -1 -2 -3 -2 -3 0 4 4 1 1 3 1 4 4 4 5 6 18 17 12 21 5 7 6 8 7 7 7 8 6 8 5 7 8 6 8 9 10 4 9 11 8 10 8 14 14 14 10 10 12 -22 0 14 6 0 0 7 6 9 8 10 11 10 13 15 16 12 11 17 15 11 14 11 2 2 0 1 7 12 8 6 6 12 15 7 2 4 9 18 27 24 18 12 9 11 9 2 5 6 10 16 11 11 15 15 13 16 17 11 18 25 23 20 17 16 21 15 13 9 14 15 12 19 20 25 20 18 21 22 29 34 34 32 31 27 23 25 2 0 0 0 0 0 0 0 0
 -4 -3 -3 0 3 2 2 5 3 -2 -3 -4 -3 -2 -3 -3 -2 -3 -3 -3 -2 -3 -1 -1 0 0 -2 0 0 -2 -3 -1 -1 -1 -1 0 0 0 1 1 3 1 1 2 2 3 3 4 7 10 19 19 8 6 5 7 8 9 9 6 7 6 6 8 5 8 6 8 9 8 8 12 14 16 11 11 12 11 16 12 15 4 15 6 0 4 9 10 8 11 12 15 11 11 19 14 18 15 9 14 12 12 15 14 10 17 10 13 12 13 5 6 9 11 18 24 19 22 20 28 31 23 34 34 22 14 16 8 3 1 4 8 3 7 8 18 10 12 14 10 14 18 26 24 28 26 26 25 27 25 10 21 29 20 25 26 24 25 28 26 29 30 32 31 26 22 23 21 4 0 0 0 0 0 0 0 0 0
 -2 -3 -2 -3 -3 5 6 7 5 5 1 -2 -3 -4 -4 -4 -4 -3 -2 -3 -1 -1 -2 2 0 1 3 0 1 2 0 -1 1 0 1 3 1 6 0 0 1 0 3 3 2 4 5 6 6 9 7 6 7 8 8 8 7 6 6 7 7 5 6 7 8 8 7 10 11 9 8 10 11 9 12 12 11 11 13 12 15 12 0 0 3 26 10 9 8 7 11 7 11 15 21 14 12 10 7 9 12 10 9 8 8 10 8 9 12 14 14 12 12 8 16 16 16 20 23 33 29 40 39 37 13 8 9 3 10 7 3 10 8 8 13 16 13 12 11 11 9 12 21 29 35 21 23 25 29 29 30 28 31 21 22 22 19 20 24 28 28 29 29 26 19 13 10 4 0 0 0 0 0 0 0 0 0 0
 6 1 -3 -3 3 11 9 6 3 -4 1 -2 -3 -5 -3 -1 -3 0 2 6 5 -1 -1 0 0 0 1 0 3 2 1 -1 0 0 1 1 1 0 -1 3 2 2 1 1 7 13 5 7 6 8 7 7 9 8 13 13 17 8 8 6 5 8 7 6 9 9 10 13 10 5 9 8 11 11 13 12 13 13 13 14 9 0 -1 5 6 16 19 11 12 10 8 7 8 10 15 11 8 8 6 13 10 6 7 8 6 7 8 10 16 14 13 12 11 11 16 16 17 20 27 31 27 18 19 37 15 18 18 18 12 10 6 1 12 7 5 5 11 16 19 21 28 13 18 10 15 19 19 20 23 34 28 30 45 38 18 15 17 19 20 26 27 24 20 17 13 3 7 0 0 4 0 10 0 0 0 0 0 0
 11 6 4 0 2 9 12 9 3 3 1 -1 -3 -2 -5 -2 -3 -1 -1 3 0 -3 0 -1 -2 1 -2 0 0 0 -1 -1 0 0 0 0 1 0 0 1 4 4 5 10 4 7 10 11 7 8 9 8 8 9 9 11 17 15 17 5 7 8 7 8 9 7 13 11 13 8 9 10 12 13 15 18 16 10 12 10 0 0 7 10 12 18 13 11 13 11 12 10 9 15 16 12 8 11 12 12 10 8 8 8 7 10 9 9 10 17 13 11 14 15 12 13 12 20 30 27 26 22 24 27 17 21 15 15 14 11 6 7 11 18 26 22 17 17 15 18 21 15 14 14 19 18 23 26 31 34 36 31 25 34 20 18 15 19 20 18 22 19 21 21 13 0 2 6 4 3 5 19 0 0 0 0 0 0
 6 6 5 4 11 9 6 5 4 10 3 0 -2 -2 -1 -3 -4 -3 -2 2 1 -3 0 0 0 -1 1 0 -1 0 -2 0 0 -1 2 -3 1 -1 0 1 3 3 4 5 7 4 6 7 6 10 8 9 9 10 9 19 14 7 6 9 6 6 7 5 9 8 11 9 10 7 6 5 13 11 7 9 28 12 3 -3 0 0 12 14 13 13 9 14 11 12 16 14 17 11 13 13 15 11 15 15 19 21 22 16 13 15 21 14 10 15 12 12 13 29 23 12 12 19 24 26 20 20 22 24 18 18 11 13 7 5 6 21 23 20 30 34 37 30 23 22 24 22 19 21 17 14 17 20 22 21 40 27 25 17 18 33 28 28 25 28 36 41 32 16 6 5 9 20 23 22 20 29 0 0 0 0 0 0
 17 10 9 12 13 8 5 3 1 -1 -2 -2 -2 -1 -2 -1 -3 -1 -3 -2 -2 -2 -1 -1 -1 -1 -1 0 1 0 0 0 -3 -2 -2 -2 -1 -2 -1 2 4 7 14 14 23 23 21 13 10 8 8 9 9 9 10 11 14 10 10 7 6 6 1 8 0 -2 -1 9 8 7 2 4 0 0 8 7 10 13 21 13 1 5 10 12 3 6 9 5 5 16 8 13 11 13 14 17 15 22 21 26 22 16 15 14 17 13 17 19 19 15 12 16 15 23 30 29 18 15 19 25 22 18 15 14 13 12 14 15 4 5 18 6 10 8 9 15 14 22 30 32 27 33 25 25 26 22 19 17 15 18 18 15 24 20 17 22 21 21 20 31 25 22 16 12 5 4 18 31 36 33 43 40 0 0 0 0 0 0
 15 10 11 13 8 7 7 11 11 8 -2 -3 0 -1 -2 -1 -3 -1 -1 -3 -2 -3 -2 -1 9 15 10 2 -2 -1 -1 0 -3 -2 -2 -3 -3 3 3 6 12 18 20 23 21 26 16 12 11 9 10 8 9 9 8 11 13 10 9 10 3 1 4 -2 2 4 1 4 0 7 5 6 8 8 10 8 10 11 7 9 0 7 17 11 7 8 11 13 15 13 15 15 16 18 15 18 22 21 19 17 18 21 16 17 18 18 20 21 17 18 18 18 18 31 30 14 26 33 32 38 24 21 18 15 15 15 18 22 14 6 4 4 3 13 10 15 10 35 16 10 36 21 10 11 22 21 17 16 16 16 13 16 18 17 19 15 18 20 20 33 30 32 20 18 13 16 20 34 30 34 26 38 0 0 0 0 0 0
 9 7 11 11 5 4 11 9 3 0 -2 -3 -2 -3 -3 -3 -2 -2 -2 -1 -2 -2 -2 -1 -2 3 0 -2 -2 -1 -3 -2 -1 -3 -2 -1 -2 3 8 14 13 15 19 20 20 17 15 13 12 11 10 10 9 8 10 9 11 11 11 8 6 8 7 6 6 4 4 6 4 4 6 10 7 12 10 9 3 1 0 4 9 6 9 8 10 7 8 10 14 12 13 13 12 14 13 10 16 13 15 19 21 20 17 17 17 19 26 25 28 34 20 21 17 31 17 15 9 26 30 20 18 22 21 17 14 20 24 18 23 4 4 4 28 25 19 8 15 28 8 9 8 10 17 14 7 14 26 13 12 11 10 9 18 10 9 13 14 13 17 26 41 43 36 39 18 13 23 24 30 61 34 42 0 0 0 0 0 0
 2 -1 -2 0 1 3 6 6 6 1 -2 -2 -2 -3 -3 0 -4 -2 -3 -2 -3 -2 -3 -2 -2 -1 -3 -3 -2 -3 -2 -2 -3 -1 -3 0 3 9 10 12 18 20 21 20 19 16 12 11 9 7 9 8 9 10 12 11 11 9 12 10 7 9 5 6 7 5 2 0 10 6 7 7 2 0 0 24 6 8 7 9 14 10 16 8 8 6 6 6 8 5 6 9 11 13 10 7 12 11 10 13 17 20 22 20 21 22 36 32 36 38 22 22 20 15 16 15 13 9 17 19 21 21 9 17 20 25 28 22 18 4 4 4 4 27 24 17 13 12 7 15 10 18 11 11 14 11 12 10 21 15 18 12 15 22 34 23 21 20 19 45 35 43 37 30 15 22 29 14 30 37 44 43 0 0 0 0 0 0
 -3 -2 -3 2 -2 1 6 5 -2 -4 -3 -1 -3 -3 -3 3 0 -3 -1 -2 -2 -2 -4 -2 -2 -1 -1 -1 -1 -2 -1 -1 -1 3 8 9 10 15 18 18 16 17 17 15 17 15 14 13 10 9 10 15 12 12 11 11 10 10 11 9 7 5 7 9 6 4 0 20 0 5 6 7 6 8 7 7 8 10 8 5 8 9 9 9 7 7 5 5 6 12 10 8 10 11 13 7 9 8 10 9 12 18 19 17 21 34 34 37 34 30 26 28 24 21 28 21 16 18 20 30 3 4 8 4 4 4 4 4 5 4 4 4 4 4 5 4 13 22 18 16 17 14 13 14 18 12 10 8 8 10 9 9 17 12 17 17 11 12 24 13 10 13 16 14 31 34 36 38 42 44 40 40 0 0 0 0 0 0
 -4 0 2 -2 -2 -2 -2 -1 -3 -2 -4 -2 -3 -3 -3 -1 -4 -4 -3 0 -3 -2 -2 -2 0 -1 -2 0 1 -1 0 -1 -2 3 9 20 19 21 21 17 14 14 13 15 14 12 12 12 12 24 27 27 17 11 11 8 9 9 9 8 9 4 8 5 4 0 3 4 5 7 6 8 7 6 5 6 9 6 7 6 4 4 7 19 9 6 7 8 6 6 7 10 10 15 9 7 8 10 11 11 11 13 24 22 17 34 27 27 38 25 30 28 28 23 26 17 23 18 4 20 9 7 4 4 4 4 4 4 4 4 4 4 14 5 15 28 25 26 21 20 20 19 19 23 22 18 19 23 23 25 32 30 24 20 21 18 12 18 16 32 29 30 35 39 37 41 47 45 44 43 39 33 0 0 0 0 0 0
 -2 -2 -2 -1 -2 -4 -3 -1 -3 -2 -4 -4 -2 -2 -2 -3 -4 -3 -3 3 -3 -1 -2 -1 8 -1 -2 -1 -1 -1 4 3 8 8 13 11 15 15 16 13 13 13 13 12 11 19 12 13 29 30 27 30 27 21 9 7 6 6 6 7 4 3 5 3 -1 0 1 3 7 9 9 6 7 11 7 9 11 13 8 7 8 6 3 6 8 8 7 9 6 7 7 6 12 8 10 8 13 10 10 10 10 10 23 21 31 38 42 47 50 35 22 19 20 23 9 17 9 7 5 4 4 10 19 4 4 11 5 4 4 4 4 31 12 31 33 26 23 23 30 19 24 19 19 17 18 16 27 27 22 19 27 24 26 29 25 17 11 18 36 32 38 37 45 48 43 46 50 46 46 46 46 42 39 0 0 0 0 0
 6 -2 -3 -2 -3 -2 -2 -2 -2 -4 -2 -3 -2 -2 -3 -3 -3 -4 -4 8 -2 -3 3 -1 -3 -2 -1 -1 1 -1 6 10 7 7 8 17 17 15 10 9 10 9 10 9 10 25 28 35 35 38 35 30 26 27 11 9 6 5 5 2 3 3 4 2 6 10 4 4 4 6 4 8 7 6 7 7 10 8 10 6 7 6 16 13 7 8 7 8 8 8 7 8 8 8 9 9 8 7 7 8 9 18 20 9 19 29 37 47 47 38 18 23 20 9 6 15 16 30 45 39 24 20 18 26 62 37 54 24 14 6 4 15 22 27 46 22 22 23 22 20 23 20 18 18 17 18 36 28 22 21 24 21 24 30 22 9 11 17 29 40 43 47 53 55 57 50 49 50 46 49 44 40 37 0 0 0 0 0
 6 0 4 15 12 9 -1 -3 -3 -4 -3 -2 -2 -3 -2 -3 -4 -3 -3 -3 -2 -3 -2 -2 -2 0 -4 2 -2 3 8 13 7 5 7 11 16 2 4 6 5 5 6 10 10 14 17 32 36 39 30 32 27 26 18 6 6 1 1 1 2 2 2 0 0 14 8 4 6 5 5 7 7 10 14 9 8 8 8 7 7 6 8 6 4 6 7 7 7 7 8 7 8 10 9 6 7 7 6 15 22 23 18 16 14 13 22 16 14 16 22 12 20 33 22 34 38 55 64 70 47 48 40 24 29 36 45 31 30 26 24 22 18 41 41 23 25 24 20 22 21 34 28 21 20 19 22 22 21 22 24 24 26 18 21 9 43 43 44 42 49 48 55 52 50 46 47 47 46 48 46 48 54 0 0 0 0 0
 14 15 11 4 -3 -3 -3 -4 -3 -4 -3 -2 -3 -2 -3 -2 -3 -2 -2 -4 -2 -1 -1 -1 -3 -3 -3 -2 0 4 11 17 5 5 2 1 3 1 3 3 8 5 5 10 10 14 24 32 29 28 27 16 18 28 21 0 -1 1 1 0 0 1 1 0 5 9 17 21 9 4 6 5 7 7 7 13 11 11 7 6 6 6 5 4 9 6 9 7 9 7 7 6 9 9 7 10 8 8 9 9 11 17 12 10 10 12 13 12 24 18 28 24 51 48 54 79 58 67 72 61 48 30 23 37 58 48 56 41 53 49 57 38 16 5 5 8 8 21 25 23 33 34 36 21 23 23 24 27 21 17 24 35 13 11 26 44 47 47 48 47 47 52 46 43 42 41 41 44 45 46 47 46 58 0 0 0 0 0
 33 25 15 8 -2 -1 -2 -1 -3 -2 -2 -3 -3 -1 -2 -3 -2 -2 -2 -1 -2 -3 -2 -2 -2 -2 -2 -2 0 5 7 6 3 1 4 -2 0 3 3 7 7 9 10 8 13 12 13 14 16 12 7 8 14 21 1 1 2 0 -1 -2 1 0 5 0 2 4 3 4 7 4 7 8 5 9 7 7 9 8 9 5 7 6 8 7 7 8 7 7 8 6 8 6 7 8 14 13 10 10 8 8 9 10 11 11 10 12 12 13 23 27 33 33 48 39 41 47 51 52 69 54 35 39 24 31 31 33 39 50 52 54 58 49 20 12 12 22 11 7 22 37 37 24 25 25 27 19 14 29 43 29 31 16 25 35 43 42 47 46 45 50 48 43 42 41 37 37 44 41 41 47 51 52 55 0 0 0 0 0
 6 4 1 -2 2 -2 -1 -2 -2 -3 -2 -3 -2 -3 -3 -2 -2 -3 -3 -2 -1 -1 -1 -2 -2 -2 -3 -1 -1 -3 -2 -2 -2 -3 -2 -1 2 2 4 5 6 8 10 14 16 14 17 15 12 6 0 1 -1 -1 0 -1 -1 -1 1 -2 -2 -3 0 1 6 4 2 0 3 5 7 5 7 7 9 10 11 10 11 9 8 7 7 7 10 9 9 9 7 7 8 10 7 7 10 15 15 10 8 9 12 10 11 12 14 14 14 15 24 18 39 28 21 26 27 27 49 74 70 53 39 35 27 34 29 49 64 75 61 50 70 45 28 16 20 31 43 21 11 23 20 25 31 26 21 12 33 38 39 39 31 20 24 46 51 47 47 52 47 48 45 42 42 51 43 42 42 46 48 51 57 51 53 0 0 0 0 0
 -2 -2 -2 -1 -3 -1 -2 -2 -1 -3 -1 -2 -2 -3 -3 -3 -3 -1 -3 -3 0 -1 -3 -2 -1 -1 -1 3 -2 -2 -2 -2 -3 -2 -1 -1 3 2 3 2 6 5 8 10 12 16 17 17 22 14 1 -2 -2 -2 -3 -2 -3 -1 -2 -3 1 13 3 1 -2 0 0 1 2 3 7 8 3 7 7 8 12 19 7 8 9 6 10 11 8 10 9 6 9 11 7 8 8 8 10 9 9 18 11 9 12 12 12 13 12 14 16 16 17 16 20 20 24 21 30 28 65 73 80 78 65 53 36 33 23 32 57 63 59 60 61 50 40 62 37 37 36 29 25 23 22 30 27 25 26 22 21 36 38 34 32 13 37 49 47 50 47 48 51 51 47 50 52 65 51 47 50 48 49 52 52 60 57 0 0 0 0 0
 -3 2 -1 -2 1 -1 -3 -1 0 3 3 9 6 5 4 6 2 0 -2 -1 0 -2 -1 -2 -1 -2 -3 -3 -2 -2 -2 -2 -1 1 1 2 3 4 5 9 9 9 10 11 14 28 26 24 13 2 0 -1 -2 -1 -1 -4 0 -1 -3 3 3 0 -1 -2 5 -1 0 1 1 4 3 6 3 4 6 5 7 16 9 6 7 6 6 8 6 5 6 7 8 7 8 10 10 7 8 9 10 11 10 12 11 12 12 13 14 15 15 14 14 11 14 17 21 23 24 22 30 47 79 72 60 51 39 33 24 29 35 47 36 50 34 51 61 70 61 52 38 38 42 38 30 24 32 25 32 24 30 22 32 32 17 36 48 47 51 48 50 51 47 48 52 54 49 55 49 53 49 51 52 52 61 63 69 0 0 0 0 0
 0 2 -1 1 -2 -3 -3 -3 5 7 4 6 8 9 12 12 11 4 2 0 -2 -2 -2 -1 -2 -2 0 -2 -4 -2 -2 -3 1 2 5 6 5 7 9 6 6 11 8 11 10 12 12 7 2 2 1 0 -1 -2 0 -3 -3 -1 0 0 0 -1 -3 -2 -1 -2 0 0 0 2 1 5 7 9 8 5 9 7 7 7 15 6 7 8 7 8 10 10 6 7 9 9 10 12 8 10 9 10 14 10 11 14 13 16 20 14 14 16 14 12 13 15 15 20 25 25 26 19 48 49 40 39 35 28 23 24 27 25 26 23 28 37 48 59 48 43 41 47 50 53 43 33 30 25 21 20 10 23 20 24 32 37 51 54 51 46 49 50 50 51 51 55 55 46 44 45 51 44 57 47 54 45 41 0 0 0 0 0
 0 -2 -2 -1 2 16 9 3 -1 -2 4 7 8 14 18 16 14 11 5 -1 -2 -2 -2 -2 -3 -3 -2 -2 -2 -1 -2 -2 -1 1 4 4 5 7 8 9 10 9 9 9 7 5 6 2 -1 0 0 -1 -1 -1 -1 -3 -3 -2 -3 0 0 -3 -2 -2 -1 0 -1 1 0 1 4 3 5 5 4 7 8 3 5 6 10 12 7 7 7 6 7 7 7 7 7 23 12 8 10 9 10 9 12 13 15 12 13 13 21 19 18 32 18 19 16 23 26 23 20 21 16 20 37 45 37 34 42 35 18 21 26 26 28 29 32 34 46 42 44 43 54 51 58 63 57 40 40 28 17 13 13 25 23 27 34 41 40 35 48 51 51 54 52 48 50 53 50 59 48 43 41 43 42 40 34 33 32 0 0 0 0 0
 0 6 5 5 7 16 19 11 19 0 0 5 15 18 17 19 13 15 9 2 4 5 -1 -2 0 -3 -1 -1 -1 -2 -2 -1 0 2 3 3 8 7 4 6 13 13 7 4 9 2 -1 -1 -1 -1 -1 0 -2 -2 2 -2 0 -3 -1 0 4 -2 -4 -2 0 0 -1 -2 0 1 1 4 2 4 7 5 8 11 5 7 8 10 7 7 7 7 10 8 9 9 7 10 13 9 11 13 11 12 11 13 15 18 23 20 15 16 18 20 24 27 18 21 26 20 26 24 23 29 32 30 34 35 28 22 18 20 26 29 31 30 29 34 34 37 33 38 40 46 52 54 43 40 52 61 29 11 22 32 34 38 32 33 32 38 43 49 52 53 53 50 47 50 41 43 27 39 39 41 40 39 37 32 38 0 0 0 0 0
 0 2 9 9 14 23 23 20 19 10 3 12 20 26 24 19 12 11 8 7 8 8 4 5 -1 -2 -2 -1 -1 -1 -1 0 -1 3 4 6 8 8 6 5 8 11 15 7 -1 -1 -3 -1 0 -1 -2 -1 -2 -1 0 14 12 -2 0 3 4 0 -2 -1 -2 0 0 0 2 2 1 3 14 5 4 7 6 6 8 7 8 8 8 8 8 10 9 24 10 11 13 10 11 12 12 13 13 13 14 13 14 17 16 16 15 16 16 17 19 22 22 24 25 27 27 29 30 32 40 31 27 19 21 22 33 22 24 31 33 34 29 32 38 40 46 55 53 49 46 40 45 41 39 54 21 45 32 33 37 34 35 35 40 44 50 54 50 55 51 45 47 46 40 33 31 37 39 42 37 40 36 34 37 0 0 0 0 0
 0 8 14 19 20 25 24 22 20 9 14 18 23 27 31 26 14 16 17 13 12 5 1 -1 -2 -3 -3 -1 -2 1 0 0 1 0 2 5 7 11 7 1 3 8 3 0 0 -2 3 11 13 3 -2 -1 -1 -2 -3 -1 1 5 7 6 2 -1 -2 -1 -1 0 0 1 1 4 3 4 3 4 7 11 9 11 13 10 11 11 9 12 10 11 12 23 15 26 20 25 23 15 16 10 11 18 18 15 15 19 28 28 19 14 16 17 19 27 21 23 21 24 23 24 24 29 27 26 26 29 21 34 22 22 28 30 27 27 30 35 34 35 52 55 65 43 41 40 37 39 34 48 24 18 29 33 39 33 37 36 34 48 60 69 60 60 52 51 45 48 42 31 27 21 30 36 31 34 35 45 40 0 0 0 0 0
 0 17 30 35 32 27 24 21 20 29 37 15 19 21 26 24 24 19 13 11 7 6 5 -1 -2 -3 -1 -3 0 -1 -2 0 1 1 -1 -1 3 1 0 1 -3 -3 -1 -1 0 10 11 9 6 0 -2 -2 -1 -1 1 1 5 8 5 1 -2 -1 0 0 0 3 1 1 2 3 3 5 6 8 7 15 12 13 12 10 10 11 12 12 12 14 12 25 23 22 17 13 17 19 18 15 20 14 17 13 14 14 18 14 14 17 15 17 18 24 21 21 19 19 19 22 23 25 24 23 19 19 19 21 28 19 30 25 28 30 33 40 41 43 56 58 44 43 39 37 42 38 30 34 49 11 23 23 33 34 37 32 35 46 62 69 75 71 78 67 64 60 55 35 22 19 28 32 37 32 37 47 36 0 0 0 0 0
 0 35 45 44 38 31 34 30 22 26 26 22 19 14 13 17 15 11 6 6 0 -2 -1 -1 -2 -1 -3 -2 -1 -2 -2 -1 -1 -3 -1 -1 -2 -2 -2 -2 1 0 -1 4 8 8 8 1 1 -2 2 5 0 0 1 2 0 -1 -2 -2 0 -1 -1 -1 0 1 3 4 6 6 7 6 9 14 16 14 18 14 16 13 15 19 22 25 26 30 23 20 24 23 22 22 20 20 15 16 13 15 15 14 17 16 17 22 16 13 19 23 21 24 22 23 24 26 23 26 19 31 31 19 19 32 25 30 18 31 28 25 30 35 39 45 58 46 41 39 41 43 37 35 39 39 26 24 37 22 15 29 35 37 33 36 35 43 51 66 68 59 65 55 57 45 42 25 19 19 19 30 36 34 34 35 36 0 0 0 0 0
 0 42 43 41 42 42 33 27 24 16 16 9 7 5 14 10 7 9 -1 -2 -1 -3 -2 -1 -1 -2 -3 -2 -2 -1 -1 -2 -1 -2 -2 -1 -1 -1 -2 -2 1 3 5 3 2 3 0 -3 -3 1 0 6 1 2 0 0 0 13 18 -1 1 1 0 1 0 2 2 7 7 7 9 12 17 19 30 16 15 13 12 13 21 19 18 14 17 14 14 13 11 12 13 18 26 24 20 20 23 17 14 15 15 17 15 16 16 14 15 19 23 23 25 25 24 25 27 28 27 22 19 20 24 30 28 22 18 28 29 29 31 32 53 55 52 40 49 40 38 41 37 36 34 39 30 24 24 24 13 17 30 31 32 32 30 35 47 48 50 48 45 51 35 37 27 19 25 30 23 23 22 38 37 45 52 0 0 0 0 0
 0 37 33 37 38 34 30 22 19 15 22 22 17 8 2 6 7 4 -2 -3 4 4 3 3 0 -1 -2 -2 -1 0 -1 -2 -2 -2 -2 -1 -2 -2 -1 -1 2 4 6 2 2 2 0 1 0 3 1 1 0 -1 1 0 12 17 14 6 1 0 1 3 3 2 7 10 13 13 24 20 29 15 19 19 17 11 14 25 33 36 34 29 29 18 20 19 19 21 17 14 17 18 22 26 26 18 13 14 20 15 15 14 15 14 21 24 22 22 22 20 24 24 28 26 23 22 22 32 32 26 22 21 22 28 43 45 43 47 47 34 38 37 34 37 41 38 33 35 35 36 35 29 25 29 22 14 21 27 28 25 26 26 28 38 47 51 48 35 30 31 23 21 44 47 26 26 25 38 41 46 45 0 0 0 0 0
 0 31 29 29 28 34 32 22 18 21 21 17 20 10 10 8 4 3 2 1 0 0 -1 -1 1 0 -3 -2 -3 0 0 -1 3 2 9 4 -1 4 5 6 6 3 0 1 0 0 -1 -2 -1 -2 -2 1 -2 -1 -1 -1 2 0 10 0 1 2 4 4 3 5 7 10 26 18 19 20 22 19 16 16 12 13 20 30 38 37 30 23 22 24 33 40 48 41 36 18 16 18 15 17 20 19 17 17 14 18 15 15 16 20 21 26 28 31 35 30 26 24 25 25 20 25 22 27 28 25 24 17 22 35 44 41 39 29 28 42 36 33 36 43 39 35 34 45 42 40 35 29 28 32 36 13 14 31 31 22 21 28 30 35 42 39 51 33 28 24 19 19 28 30 23 23 30 40 42 44 48 0 0 0 0 0
 0 31 32 32 34 37 31 30 29 24 14 13 15 8 3 2 2 -2 3 1 3 0 -1 0 -2 -2 -2 -2 -3 -2 6 0 -1 1 0 3 1 3 3 0 0 1 0 -1 -1 -2 -1 -2 -1 -1 -1 -2 -2 -1 -2 -2 1 0 2 3 3 4 5 6 7 5 10 12 19 14 17 15 16 16 18 17 14 13 16 18 21 31 27 22 21 21 36 45 59 50 43 31 20 14 13 16 13 13 16 17 21 17 16 18 17 21 24 27 25 23 22 25 26 30 30 28 27 21 19 27 25 22 20 17 21 25 23 27 30 29 28 39 51 44 37 36 33 37 38 37 32 34 31 35 36 38 19 27 31 26 24 24 22 24 33 30 33 32 28 23 31 33 22 43 44 28 22 29 32 42 48 51 51 0 0 0 0 0
 0 42 44 44 48 40 30 26 22 23 17 17 11 8 9 7 0 -1 -2 1 2 5 0 0 6 -2 -1 -1 1 0 0 -1 0 0 1 0 2 3 6 3 -1 0 -2 -2 -4 -2 -3 -1 3 2 2 1 1 1 2 3 2 4 3 2 4 6 5 11 10 8 13 16 13 14 22 19 23 22 24 23 21 20 19 22 21 22 23 23 25 31 47 53 58 49 43 36 25 28 16 14 14 15 15 17 19 18 20 19 19 20 22 20 19 19 20 20 24 28 30 23 23 23 18 19 21 22 24 24 26 24 27 26 29 32 35 31 33 42 36 34 33 34 36 28 34 24 30 38 33 30 18 32 34 30 21 18 22 31 34 33 35 25 23 28 28 27 22 39 46 30 40 42 44 47 53 52 51 0 0 0 0 0
 0 40 43 37 35 30 28 25 23 19 13 13 5 4 5 -1 -2 -2 -2 2 2 1 4 2 1 -3 -1 2 4 -1 0 3 8 1 -1 -1 0 1 1 4 3 -2 -2 -1 -2 0 3 7 12 19 16 8 5 5 5 13 10 7 7 5 5 7 6 9 6 6 7 5 9 13 14 17 19 20 18 17 14 17 21 21 22 25 23 28 31 40 51 56 54 43 34 31 17 15 17 19 17 15 16 17 19 18 17 20 20 25 22 18 22 20 22 22 22 26 24 21 27 24 26 29 28 25 22 23 25 27 28 28 28 31 31 31 45 45 41 37 35 32 33 33 30 23 30 35 27 31 32 33 27 28 27 24 27 40 31 24 21 23 27 38 37 32 23 40 46 45 48 44 49 52 53 50 51 0 0 0 0 0
 0 44 49 40 29 29 20 15 23 19 7 5 1 4 2 1 -1 -1 -1 6 2 1 1 -1 -1 -1 0 0 -1 0 1 1 3 -1 -2 0 2 0 1 -1 4 0 -1 -2 -1 5 8 19 19 28 25 19 12 12 16 14 16 21 19 13 16 10 9 15 17 13 5 8 10 8 10 10 18 13 14 12 17 20 22 23 22 29 36 56 43 47 48 61 57 59 54 39 17 15 23 20 15 16 16 17 16 16 19 22 22 25 30 26 25 28 31 24 25 24 18 21 25 27 27 26 25 28 24 25 30 24 24 24 25 26 28 28 31 33 33 38 39 42 30 36 44 29 23 32 37 34 32 29 29 33 31 26 25 26 24 23 23 27 32 37 43 45 22 36 50 43 42 45 45 45 51 46 43 0 0 0 0 0
 0 49 49 34 24 22 19 16 9 13 9 3 1 -2 -1 2 -2 0 -2 1 -1 1 -1 0 0 -2 -2 -2 0 4 6 1 4 2 2 1 7 1 0 -2 0 3 -2 -2 2 4 3 8 8 12 15 16 17 28 19 20 27 28 27 24 24 17 16 27 24 16 8 7 6 9 11 12 17 19 19 16 18 20 22 24 28 30 41 49 54 57 58 55 56 55 41 23 17 18 29 26 21 21 21 22 18 17 19 21 23 25 25 27 28 30 30 27 22 20 23 23 25 27 27 24 23 27 24 23 24 25 25 27 24 25 27 28 32 28 34 37 43 42 40 33 30 27 28 33 26 24 23 24 22 27 27 18 21 21 22 25 26 28 31 37 36 38 34 33 37 37 43 44 44 41 47 45 48 0 0 0 0 0
 0 44 38 28 24 20 15 13 3 15 5 0 5 -1 -1 -2 -2 -2 2 0 0 4 -1 -1 0 1 -2 -2 -2 0 3 4 4 0 1 2 2 0 5 -2 -5 -2 -2 -3 0 1 -1 -1 0 3 5 25 24 42 35 31 26 28 40 43 41 43 42 46 30 16 13 7 11 15 9 11 14 15 17 19 21 21 22 27 29 26 32 36 45 54 53 57 46 26 23 30 27 28 24 27 25 20 21 21 20 18 21 22 25 27 26 27 28 31 29 33 29 28 25 21 25 23 25 23 23 23 25 24 22 24 23 27 24 29 27 27 29 31 35 37 42 39 35 44 28 24 27 30 28 22 22 23 30 29 29 25 27 25 30 27 30 34 34 38 33 33 46 34 40 40 42 41 40 48 54 57 50 61 0 0 0 0
 0 59 35 20 12 5 4 1 4 1 1 3 6 3 3 1 0 0 -1 -1 -2 -2 -1 -1 -1 -1 -1 -1 -2 1 1 0 6 0 -2 -1 0 0 2 3 1 1 -1 -2 0 7 3 1 1 3 6 19 24 41 47 43 49 54 56 55 56 53 54 51 31 28 16 9 11 13 12 16 22 33 29 22 39 35 35 28 37 46 45 58 63 47 38 31 31 31 39 37 30 24 18 18 20 17 19 19 19 19 23 27 26 23 23 27 26 27 28 29 26 25 24 25 29 25 22 21 24 25 29 36 30 37 25 29 24 26 25 26 29 30 37 40 36 35 36 30 33 27 27 28 26 26 23 24 25 27 37 34 31 35 31 28 30 28 30 31 33 30 31 36 42 44 41 47 40 44 49 58 62 35 0 0 0 0
 0 64 46 22 11 3 8 3 -1 -1 0 3 5 3 1 0 0 3 3 -2 2 7 1 -2 4 2 3 2 -1 -1 0 3 3 2 6 10 18 10 13 9 5 -3 3 -3 -2 -1 -3 -1 2 3 6 13 23 39 41 49 54 60 61 65 65 67 61 39 26 17 12 9 10 11 11 15 30 30 37 39 37 47 40 47 56 42 45 41 41 40 46 44 44 41 44 39 39 35 15 16 15 18 15 16 17 22 26 25 23 22 24 23 25 28 27 27 25 24 25 26 25 23 23 24 26 28 38 26 40 26 26 31 27 24 29 25 28 31 33 33 32 32 32 27 30 30 29 29 32 30 28 28 30 34 31 35 35 36 32 31 27 29 30 34 49 46 34 30 36 36 44 52 41 62 59 53 55 47 0 0 0 0
 0 36 21 12 6 14 5 16 14 4 0 1 0 5 11 10 12 13 7 1 6 8 4 6 4 5 2 -1 0 1 0 4 13 16 18 18 22 13 5 2 -1 0 -3 -2 -1 -1 -2 -2 -2 3 6 13 20 28 35 51 60 60 69 69 61 61 54 35 23 17 12 23 10 15 18 24 26 38 27 30 37 48 56 62 61 58 61 47 45 49 55 53 50 54 52 49 37 44 31 12 16 13 15 16 19 22 21 21 21 28 27 28 29 28 29 26 25 25 24 28 26 23 22 21 25 22 23 23 24 26 25 26 26 30 26 29 30 28 30 30 34 50 29 22 22 28 28 50 48 31 27 30 27 30 34 32 34 38 30 33 30 28 30 33 50 54 55 39 35 41 42 41 38 49 63 60 59 66 0 0 0 0
 0 27 28 19 10 7 2 3 1 10 4 2 5 13 18 18 18 16 14 18 20 13 12 10 8 3 19 22 2 1 7 8 14 18 21 26 19 12 15 6 -1 0 0 3 1 -1 0 0 0 1 6 11 18 26 35 41 50 53 50 52 48 42 37 24 16 14 11 12 14 18 21 24 23 23 27 36 43 44 52 56 57 58 53 53 51 53 64 61 57 55 40 47 42 31 14 12 10 11 14 15 16 14 18 20 23 27 28 27 25 26 27 24 25 25 23 22 23 25 25 24 26 26 25 26 27 24 25 26 25 26 27 25 28 24 24 26 29 28 22 22 29 27 28 36 30 27 40 47 29 31 34 33 33 30 30 27 28 44 43 35 38 41 45 51 40 34 32 40 46 48 50 53 57 57 0 0 0 0
 0 20 18 10 2 16 0 8 6 2 8 13 11 10 10 12 24 28 37 37 26 30 24 23 14 33 35 13 2 10 8 17 21 14 16 15 12 14 10 -1 -2 -1 -1 4 2 5 0 2 5 10 9 16 19 23 26 31 41 50 42 44 33 31 29 22 19 14 12 13 24 39 23 25 27 27 32 44 40 51 63 67 71 67 60 59 54 47 48 50 40 41 37 21 19 19 11 11 12 12 13 14 16 16 20 23 25 25 26 24 25 23 25 25 23 23 20 23 24 26 27 26 27 26 26 30 27 24 29 24 24 24 25 24 25 25 24 25 22 22 22 22 28 26 27 27 28 26 24 28 29 30 27 25 27 27 34 29 33 33 37 43 41 42 50 59 55 47 48 41 44 49 75 76 57 60 0 0 0 0
 0 16 27 4 18 17 12 9 8 15 21 21 24 20 19 19 29 39 47 53 52 47 36 22 21 23 22 24 3 3 6 12 17 17 20 17 25 12 10 10 4 -2 -2 -1 1 0 1 1 5 20 21 25 31 37 36 42 51 42 28 25 23 22 27 22 16 12 18 14 23 27 37 41 35 35 40 44 52 55 60 70 75 75 69 67 58 46 37 40 43 38 33 26 15 15 10 11 10 14 15 17 18 21 23 23 24 24 22 23 25 24 24 25 23 22 22 22 22 26 26 24 25 24 28 30 29 26 26 24 23 25 27 23 25 24 25 27 22 29 32 31 27 26 27 29 28 28 26 28 27 24 28 24 30 32 53 56 37 40 40 38 42 47 48 48 45 59 46 50 51 54 62 61 54 57 0 0 0 0
 0 11 11 29 17 0 11 16 21 24 34 30 34 36 36 39 38 36 40 56 51 43 32 34 30 22 22 15 4 5 3 3 7 13 21 19 8 2 2 -1 -1 -2 -3 -1 -2 2 21 19 5 3 5 13 17 26 23 31 31 20 18 13 15 17 21 21 13 17 15 23 31 30 29 37 39 39 41 49 53 61 68 76 79 78 71 64 70 71 59 32 31 32 31 43 40 16 10 8 8 13 15 16 18 20 21 23 21 21 21 21 24 22 21 20 23 21 21 23 23 24 23 20 21 24 26 26 21 23 25 23 23 23 23 24 24 33 27 27 33 32 27 26 33 32 29 28 26 29 25 25 26 26 28 32 34 34 34 34 37 38 39 46 52 44 46 47 50 52 49 52 54 51 48 51 50 53 0 0 0 0
