ncols        174
nrows        112
xllcorner    9.307916667000
yllcorner    53.563472222000
dx           0.005019157092
dy           0.005007440482
 20.0 19 22 20 13 26 25 26 33 37 38 39 40 40 36 37 39 41 46 45 45 40 37 34 28 22 13 6 6 10 11 8 11 11 13 5 1 0 -1 -1 -1 0 0 2 27 27 23 21 20 9 16 17 19 16 15 8 8 10 8 12 11 11 11 10 13 13 21 29 30 32 38 38 37 38 47 57 64 70 78 81 90 81 64 50 52 59 44 28 47 49 30 22 15 12 10 9 11 13 15 16 20 23 22 21 19 18 18 18 17 20 19 30 37 34 30 20 22 21 20 20 26 24 22 24 26 23 23 24 26 22 24 22 24 26 28 29 31 27 30 28 31 26 27 26 24 26 29 29 32 29 31 31 34 32 32 34 34 38 37 57 41 41 46 47 49 48 49 47 49 48 49 51 55 0
 19 22 28 21 18 26 33 41 32 34 36 37 38 36 34 44 43 44 40 43 41 31 31 36 37 28 11 10 14 22 24 23 21 12 7 4 3 1 1 -1 2 2 13 10 24 26 27 25 14 12 9 15 15 13 8 8 7 7 8 7 12 15 17 14 14 20 25 35 42 42 38 34 32 54 51 61 66 72 65 64 73 72 70 47 34 44 42 22 15 19 17 10 10 10 8 11 12 17 21 20 20 22 22 19 19 17 17 18 18 16 33 27 18 21 17 19 19 21 20 20 20 21 21 21 21 23 22 23 23 23 25 26 23 24 28 27 27 28 28 29 27 26 26 26 28 28 28 30 29 28 29 31 32 33 32 36 49 36 38 39 44 45 47 48 47 61 51 47 50 56 55 48 51 0
 20 31 23 24 8 19 18 22 25 30 27 28 48 34 48 52 62 59 51 40 28 27 24 30 22 9 11 32 51 37 35 25 19 12 21 8 7 5 9 14 21 35 24 23 21 26 21 12 7 3 14 24 14 13 11 10 10 7 8 10 11 12 13 14 17 18 27 35 32 33 26 36 51 49 54 55 61 69 68 43 42 38 55 48 42 32 19 16 13 14 10 9 10 10 17 10 13 20 25 24 20 22 23 17 17 17 18 20 30 31 33 37 32 28 29 18 21 20 21 30 22 21 21 19 25 24 23 24 21 23 26 25 27 25 26 26 29 28 30 29 28 28 25 28 28 29 28 29 28 30 27 29 31 43 32 35 34 34 35 38 35 40 43 47 49 48 63 63 64 65 52 49 53 0
 26 26 23 19 0 19 24 26 37 29 29 36 36 37 33 48 42 36 37 26 21 14 23 22 9 18 17 22 25 41 34 25 23 30 25 20 14 13 20 32 29 29 27 22 21 19 15 7 7 3 9 12 11 8 6 10 6 6 11 8 12 13 13 14 15 18 21 25 26 32 35 40 46 53 58 66 66 52 41 34 31 33 46 36 25 16 15 15 13 10 11 10 10 15 9 12 15 20 21 23 19 18 16 16 15 16 16 28 34 33 35 31 29 30 33 31 17 18 20 20 20 19 21 20 21 22 21 22 23 20 22 24 29 25 27 28 29 28 29 28 28 27 26 26 26 28 28 28 29 28 27 32 30 32 34 34 33 32 35 38 41 39 46 45 47 59 51 52 53 53 51 50 51 0
 22 22 15 11 0 20 25 40 35 40 38 25 25 27 24 24 24 29 32 23 18 24 24 17 21 32 27 27 44 42 36 36 40 30 30 34 28 30 27 21 17 27 18 14 15 16 15 14 13 23 21 11 15 14 11 10 6 6 7 11 12 10 13 14 18 22 31 32 44 46 47 49 52 55 55 41 45 51 37 28 21 23 23 24 18 13 11 12 11 13 21 12 12 12 10 11 14 20 21 20 19 15 17 15 15 16 20 20 22 30 25 24 27 28 24 19 18 18 19 21 19 19 19 18 20 19 21 21 21 22 21 26 26 26 24 26 27 28 26 29 25 26 26 25 26 29 28 29 30 27 28 29 30 31 34 34 37 33 38 38 38 46 41 45 46 46 50 51 53 52 49 51 50 0
 22 25 27 18 21 22 24 23 23 24 17 19 19 22 23 29 31 34 25 24 26 27 23 18 43 37 38 30 33 49 40 45 39 39 41 40 27 20 21 16 17 12 12 12 14 14 13 12 15 12 14 5 9 15 14 15 8 8 7 8 13 10 15 16 21 27 36 44 51 58 71 64 59 52 52 54 28 44 34 25 16 19 18 15 13 11 10 9 12 11 12 11 24 15 10 12 12 16 21 22 18 20 13 16 14 28 17 18 15 15 15 15 16 17 18 18 23 26 19 20 19 19 25 19 23 20 26 27 20 23 24 25 27 26 25 26 27 28 27 25 24 24 22 24 26 25 26 27 27 25 29 29 41 39 32 44 45 34 34 34 46 60 45 59 46 45 45 47 47 46 45 51 52 0
 23 21 33 0 19 20 19 19 15 19 16 16 15 13 17 30 31 34 38 35 27 22 16 21 43 47 54 49 35 49 48 44 39 37 38 44 41 37 24 15 17 14 16 24 24 18 13 11 8 10 11 12 8 11 12 12 12 8 13 17 21 19 30 27 29 31 41 50 61 68 79 69 55 51 51 46 47 20 17 16 14 17 11 12 11 12 12 13 13 13 12 18 26 29 14 13 9 14 16 19 16 13 19 26 19 14 14 16 14 14 16 17 15 15 16 17 17 18 22 19 20 18 17 21 21 20 28 28 22 24 24 24 24 24 24 26 25 28 27 25 23 22 24 29 28 26 25 25 25 26 25 28 43 45 34 43 45 50 40 36 49 43 41 36 40 42 43 44 48 45 48 49 48 0
 19 22 19 11 17 18 18 19 18 17 14 14 14 12 18 20 26 32 35 35 26 22 22 21 26 34 52 58 54 44 45 51 47 41 36 28 22 19 26 29 27 26 24 22 22 18 16 14 20 17 15 18 14 10 8 17 14 9 13 19 21 19 22 28 27 36 38 48 51 56 61 57 47 41 30 32 23 15 14 21 15 13 13 13 13 13 27 22 34 36 34 39 36 25 15 12 14 11 15 15 13 16 15 13 14 15 13 14 15 18 20 14 14 14 15 16 17 20 23 18 18 19 17 19 21 21 25 26 31 26 24 25 24 24 23 27 24 24 30 29 21 22 26 25 25 24 26 25 27 26 27 28 28 28 33 27 43 44 45 44 35 36 36 37 39 39 41 40 41 45 45 43 46 0
 15 23 0 6 15 14 11 18 20 19 18 15 16 11 19 22 23 25 30 24 31 25 24 22 39 46 48 51 53 47 53 48 56 44 35 25 27 20 23 28 30 31 32 27 24 22 20 21 30 26 16 13 15 11 10 12 14 11 15 11 16 15 22 19 22 27 31 39 50 51 54 57 57 44 28 27 18 15 14 13 13 23 13 14 17 20 31 25 32 36 37 36 28 20 23 12 13 9 13 14 13 16 14 16 11 13 15 14 13 12 12 15 14 14 15 16 20 20 18 17 16 18 17 19 20 19 19 28 26 22 25 28 24 24 23 27 25 25 27 24 38 21 23 24 24 23 22 22 22 25 26 27 28 29 27 27 44 42 45 49 33 34 38 37 49 36 36 39 43 39 43 48 41 0
 12 14 5 14 -6 10 10 17 20 15 16 13 12 11 18 17 21 24 25 19 22 23 37 47 42 50 40 42 45 51 48 39 40 29 29 24 23 30 24 30 23 27 30 29 26 35 27 21 19 19 18 16 14 17 21 19 17 19 24 16 17 13 18 19 19 21 24 35 40 47 49 63 64 58 40 28 15 14 13 13 28 25 18 19 24 31 32 35 46 43 50 40 34 26 37 18 13 10 13 10 11 12 14 12 13 13 13 12 12 12 13 12 14 14 16 20 18 19 16 21 17 16 12 18 19 19 19 24 23 21 24 23 25 20 24 22 23 24 24 24 24 22 24 24 24 23 23 28 24 25 25 26 27 28 29 37 32 43 43 39 33 34 38 35 35 44 36 36 37 39 39 41 41 0
 16 0 4 5 5 9 16 14 6 7 21 19 19 17 11 11 17 15 21 21 27 29 42 54 55 48 45 43 40 41 53 46 41 27 26 36 35 28 24 32 40 25 23 23 23 27 29 24 26 20 17 19 21 27 26 23 16 20 22 21 14 14 20 18 16 31 35 47 46 43 48 58 55 45 33 23 15 14 15 17 27 26 34 40 35 59 71 49 56 63 55 41 41 41 25 14 14 12 10 11 11 10 12 14 14 11 11 10 19 13 15 13 13 17 18 17 17 16 18 18 16 16 19 21 18 18 19 19 21 21 21 21 21 22 21 25 24 27 26 24 23 25 23 23 24 25 26 25 25 26 28 29 25 27 30 28 30 28 28 29 31 32 36 38 37 35 37 38 40 37 38 41 42 0
 2 8 3 4 11 7 3 8 23 11 7 15 17 17 15 22 16 23 34 48 48 50 60 37 39 50 49 43 37 35 32 34 35 27 25 33 33 25 27 30 33 26 22 18 19 22 24 21 26 26 24 28 28 24 28 23 20 17 16 15 17 19 23 19 19 26 32 51 50 34 33 34 29 35 20 16 15 15 15 19 24 23 23 36 47 53 60 69 68 59 64 60 39 43 31 22 14 13 13 10 16 12 11 10 10 12 11 10 9 13 11 12 12 16 17 18 20 15 24 22 16 17 17 17 17 17 18 18 18 19 19 18 23 20 21 22 25 24 27 26 23 24 23 23 23 24 24 26 25 27 27 28 29 29 30 30 29 30 29 29 32 30 32 36 33 35 33 34 35 37 37 36 38 0
 0 4 10 14 17 23 14 13 17 18 18 22 14 19 18 15 18 22 30 34 44 52 50 46 59 52 49 46 38 28 32 32 28 28 27 29 27 27 29 34 29 30 23 17 17 20 20 21 26 25 24 27 31 32 29 26 21 21 25 21 17 19 19 25 30 34 60 43 27 24 18 19 21 16 17 17 16 16 27 32 40 33 35 43 43 47 59 80 80 68 59 57 52 41 37 25 16 13 10 11 13 16 16 11 22 13 14 10 9 10 15 12 13 18 16 15 19 23 23 14 16 14 17 32 14 15 17 18 18 21 17 18 18 19 18 21 20 22 27 25 25 23 21 23 23 23 24 24 24 26 26 27 28 29 29 30 30 30 30 36 33 33 31 32 33 35 33 35 36 36 37 36 36 0
 1 4 3 1 3 2 4 10 15 17 13 16 11 12 13 14 19 24 29 35 39 42 55 54 41 43 43 32 27 29 27 21 30 25 32 28 31 25 31 30 32 32 20 14 14 19 22 21 20 22 18 21 21 24 28 28 34 29 25 23 22 22 26 35 30 38 31 24 30 27 26 30 19 17 19 18 18 23 30 44 51 59 57 67 51 62 64 54 64 68 68 53 47 38 38 29 19 12 11 8 7 22 6 15 17 12 10 8 11 13 13 13 13 14 14 15 12 14 14 14 13 14 14 15 21 18 17 18 17 18 18 20 17 20 21 24 19 19 23 22 20 25 25 25 24 22 25 24 25 26 27 27 40 30 39 33 30 28 33 35 33 34 32 33 33 32 37 34 33 35 34 36 37 37
 4 0 -1 -2 -1 2 7 10 15 11 14 8 7 8 13 14 16 24 40 40 52 65 50 42 35 29 33 23 21 29 25 20 24 29 29 23 27 23 25 28 27 24 15 12 12 17 15 20 21 14 19 22 23 26 24 28 29 30 30 55 41 26 30 33 29 33 35 40 40 41 32 29 24 23 21 23 25 32 43 51 51 56 61 82 79 73 75 74 79 82 71 63 44 47 47 47 31 15 10 9 9 8 3 15 11 9 9 10 10 12 16 13 14 16 13 13 15 10 12 13 8 11 15 11 14 15 15 18 17 18 19 18 22 20 20 18 21 21 21 22 22 24 24 23 23 25 24 25 32 23 26 27 30 29 30 30 30 32 34 32 33 30 34 33 32 52 54 53 34 34 35 35 34 37
 -1 -1 0 0 1 7 13 15 11 5 7 8 15 14 10 11 15 22 22 38 66 47 42 40 37 29 24 20 21 18 19 19 14 28 24 25 27 29 28 25 19 21 13 12 11 12 29 28 24 15 23 22 22 25 25 24 30 24 28 27 25 30 34 37 36 29 42 47 37 40 35 32 32 38 30 33 47 53 50 53 50 53 55 66 80 94 97 81 80 64 66 47 49 38 34 44 55 34 29 7 6 15 14 6 9 8 7 8 9 9 10 12 13 14 15 15 12 11 12 12 14 12 14 19 15 15 15 21 18 18 20 20 18 20 18 18 19 20 19 22 22 22 23 27 25 24 33 25 31 26 26 28 29 30 30 38 42 30 31 33 32 32 33 33 32 34 35 34 34 35 36 37 39 38
 4 1 -1 2 5 4 7 6 13 13 14 10 10 15 12 15 24 37 32 45 39 36 33 44 30 28 22 22 19 17 16 13 20 18 26 27 26 21 29 26 22 16 12 13 11 15 13 16 29 32 28 18 20 42 23 24 25 26 26 25 30 37 49 50 31 33 55 52 34 37 34 38 41 40 37 38 38 45 52 70 58 57 59 62 69 72 72 64 69 47 42 37 32 32 61 51 46 30 14 7 7 6 9 6 13 12 8 10 11 7 12 10 9 10 14 13 13 13 11 12 14 16 15 14 15 12 17 15 18 17 18 19 18 20 21 21 20 18 21 22 23 24 22 24 25 29 35 37 37 25 27 25 29 26 29 30 29 32 33 32 32 32 33 31 34 33 31 31 32 34 38 41 40 48
 6 1 4 4 9 12 12 14 12 13 8 11 10 9 15 17 19 31 36 49 47 42 34 32 30 20 22 18 17 18 11 12 14 20 21 22 16 21 29 30 23 15 9 6 14 18 18 19 16 20 35 26 25 23 20 22 33 28 30 23 21 30 32 23 32 32 41 41 37 41 42 45 47 50 50 52 52 51 51 61 72 84 63 62 67 74 83 65 63 44 39 39 39 33 37 40 37 33 17 6 3 5 19 6 5 5 7 18 9 11 11 9 10 10 12 12 12 13 13 13 13 14 15 15 15 16 17 23 20 17 19 18 17 18 19 18 18 20 21 21 21 31 31 34 39 42 39 43 37 27 28 25 28 28 28 27 29 30 30 31 31 31 32 31 32 34 33 33 36 42 50 53 54 53
 4 -1 1 4 9 13 15 10 9 11 10 11 13 14 21 39 41 44 48 55 53 45 39 34 31 27 23 20 15 11 15 16 18 21 20 18 17 23 19 15 18 15 15 5 13 17 18 20 18 17 20 29 31 20 20 22 23 23 28 21 18 18 17 23 33 30 34 53 54 46 48 39 42 48 60 56 57 65 66 63 66 67 63 68 83 70 65 70 60 37 33 37 22 32 43 37 27 18 17 6 6 13 14 9 10 12 5 17 14 13 13 12 11 13 19 13 13 13 12 13 14 14 14 14 15 15 17 24 22 19 19 16 18 20 24 21 19 19 19 21 21 33 32 32 37 35 27 30 29 28 28 29 27 27 26 26 27 28 29 28 29 31 32 34 36 39 53 51 39 46 50 52 50 51
 1 -3 -2 0 -1 1 2 4 3 3 8 11 20 23 35 37 46 44 66 48 43 36 27 25 29 16 16 9 10 9 12 17 22 17 13 11 18 22 18 4 4 6 10 14 17 19 19 17 21 33 40 39 31 23 22 24 23 28 21 28 25 18 18 17 18 33 45 54 51 50 53 53 55 48 53 58 46 49 55 56 58 62 54 62 64 75 60 59 53 47 46 27 20 27 36 40 37 31 19 7 6 6 4 7 7 17 18 20 9 10 10 11 14 15 12 12 13 20 20 13 15 15 15 14 15 14 15 17 17 17 16 17 18 19 20 19 20 21 21 25 24 25 35 33 33 46 55 28 29 26 30 30 31 31 30 30 30 32 30 33 34 34 34 46 50 47 52 51 51 53 54 54 51 51
 -1 -2 -1 -1 5 9 9 10 7 7 4 9 19 28 32 29 29 35 22 48 39 32 33 28 22 18 13 12 10 16 10 11 13 16 13 12 23 27 28 6 3 8 10 9 10 11 13 21 23 24 38 40 46 27 25 27 26 20 19 15 23 16 16 16 20 29 27 35 46 56 57 54 46 45 47 55 43 43 46 47 48 49 49 50 47 50 50 57 43 34 27 21 16 29 41 33 25 17 11 4 4 6 8 11 8 8 11 9 8 11 12 11 10 12 14 13 13 13 12 17 14 19 14 16 20 20 15 15 16 18 17 17 20 19 19 19 20 19 23 22 24 25 33 46 36 36 43 44 49 32 30 29 30 29 32 33 32 31 32 31 32 32 41 45 45 50 52 54 51 54 50 38 36 52
 -1 -2 2 5 3 8 4 1 0 4 6 8 12 12 12 15 19 24 26 41 39 43 27 26 27 25 8 10 10 14 14 13 11 11 10 18 27 32 23 12 2 5 4 10 12 16 27 37 39 40 36 43 40 35 39 30 31 32 27 13 17 13 16 16 22 30 35 52 49 48 50 48 53 50 52 53 45 40 37 42 42 45 43 33 38 37 40 34 40 18 19 24 24 19 31 27 19 16 8 3 11 17 6 6 8 7 6 10 11 10 11 11 13 12 12 12 11 13 14 13 14 13 14 19 14 20 15 20 17 17 17 18 19 18 19 19 20 21 21 22 23 29 35 37 42 44 53 70 51 53 48 30 31 30 31 32 31 34 31 32 31 33 34 47 45 44 48 49 37 35 38 38 40 45
 -3 -3 4 3 9 18 4 -2 -3 -1 1 1 3 4 12 15 18 26 30 34 37 37 33 29 19 15 6 15 12 25 17 6 7 15 17 14 22 32 28 30 14 1 3 13 15 24 15 16 21 37 36 42 40 43 39 38 39 35 14 15 15 14 18 20 22 31 31 31 49 36 49 52 46 44 32 36 37 33 44 67 46 39 45 36 39 38 37 31 23 27 24 21 14 19 31 26 22 13 6 2 9 8 6 7 9 8 10 9 10 12 9 11 12 10 13 13 13 11 13 15 11 27 28 31 18 30 15 15 18 18 17 20 20 17 20 20 20 20 21 21 26 29 35 54 61 66 67 72 55 52 39 34 35 39 45 50 40 32 31 32 33 32 46 48 45 44 36 34 33 32 38 37 37 37
 -3 -3 -2 -3 -2 -2 -3 -1 -1 1 7 5 4 9 12 15 26 32 30 32 36 35 34 30 20 23 17 9 6 8 20 2 10 13 14 14 9 25 29 31 20 13 6 1 9 10 14 12 17 26 37 39 38 37 41 22 35 17 14 13 15 17 15 20 20 24 24 29 37 43 36 44 41 21 25 26 31 38 52 59 65 53 37 30 26 25 22 22 11 14 19 9 21 23 26 32 34 3 2 10 11 12 8 11 9 8 9 10 10 11 11 10 11 10 11 12 14 13 21 24 25 29 22 27 14 19 18 18 17 17 18 18 20 18 19 22 20 21 22 24 27 35 42 41 56 63 67 78 72 43 40 39 39 37 38 45 45 51 32 31 32 37 49 48 43 39 41 32 31 33 40 40 42 37
 0 -1 -3 -3 -5 -3 9 18 4 13 1 1 7 12 11 13 14 26 38 41 33 31 25 26 25 23 21 11 11 4 3 2 2 9 7 8 9 17 20 15 5 5 2 5 9 5 13 12 14 15 19 21 21 22 24 21 21 17 13 16 12 14 18 37 45 27 29 27 25 44 38 37 24 18 21 28 29 34 45 46 50 61 52 40 23 16 17 7 8 6 15 11 9 5 4 4 3 7 12 10 17 9 7 9 9 8 8 10 11 10 10 10 11 9 10 11 12 12 13 21 20 14 14 15 22 16 16 17 17 20 18 22 18 19 22 27 26 21 24 37 46 43 44 53 49 87 77 84 69 44 38 36 34 33 32 34 37 46 40 46 31 31 30 31 34 39 33 32 35 32 37 43 43 40
 -4 -5 -1 -4 -4 -2 4 18 6 8 9 6 2 9 12 12 12 10 12 19 18 21 -6 21 26 27 23 18 17 17 10 13 12 6 0 1 -1 3 1 2 5 6 4 10 16 15 15 12 11 12 19 20 19 22 22 22 20 18 10 21 20 20 16 20 25 28 28 27 26 17 14 17 14 21 22 19 24 29 38 42 50 49 44 43 24 16 7 6 4 4 5 5 5 4 4 13 11 13 6 4 18 16 12 8 9 10 13 11 9 9 9 11 13 9 11 10 12 15 21 13 14 15 16 16 16 14 15 16 18 17 19 20 20 20 21 21 24 28 30 32 44 48 43 46 75 78 65 88 60 50 39 37 33 32 31 31 33 30 34 28 30 29 28 29 28 29 31 30 31 32 31 31 36 35
 -1 -3 -5 -3 -3 -5 -2 -3 1 4 -1 3 5 -1 9 9 12 12 15 15 13 15 2 8 19 26 21 33 36 14 17 17 15 13 1 -1 5 7 4 7 10 14 16 12 16 23 21 16 15 13 16 15 17 19 24 36 36 18 14 17 22 24 21 26 32 32 28 26 25 23 23 23 17 14 15 18 23 23 24 28 37 43 43 33 8 4 3 3 4 3 3 4 4 3 4 8 6 6 9 6 11 8 9 10 12 10 10 10 10 9 10 11 9 10 10 11 12 14 14 13 14 13 15 16 21 20 16 15 17 18 21 22 22 21 21 23 25 31 37 39 35 44 45 54 66 76 66 77 67 62 51 50 36 31 31 32 34 33 30 30 28 29 28 27 28 30 34 30 31 32 33 35 35 34
 -4 -5 -3 -4 -4 -3 -4 -2 0 1 -2 2 4 3 4 2 11 13 16 19 18 19 20 19 14 21 13 19 15 16 6 -1 -2 -2 6 7 7 8 16 16 14 19 20 21 20 18 18 14 14 15 12 15 18 23 31 28 21 31 35 42 28 24 24 25 24 26 25 18 24 21 22 19 19 23 21 19 22 26 22 24 30 36 34 23 7 7 13 1 3 1 2 2 3 3 6 5 6 6 8 4 9 7 8 10 11 10 10 12 10 10 10 13 12 12 11 10 10 13 13 14 15 14 16 16 16 17 16 18 40 32 33 33 31 31 37 29 35 29 39 37 33 33 41 41 45 50 58 56 54 57 51 38 28 28 27 29 28 29 31 32 36 32 28 28 29 30 33 33 31 33 35 33 34 35
 -5 -6 -4 -4 -4 -2 -3 -2 -3 -3 -3 -3 0 -1 5 22 18 33 26 22 26 28 25 23 18 14 5 4 5 -2 -3 -1 2 9 19 29 11 13 10 12 14 14 16 18 17 14 10 12 12 15 16 13 14 16 31 33 14 34 31 30 28 35 22 23 23 20 21 13 18 13 18 18 27 20 29 32 19 34 35 43 41 54 53 37 4 4 2 1 12 6 3 3 5 15 9 6 6 6 8 7 8 9 9 14 13 13 13 10 8 9 10 9 11 11 10 10 12 15 13 16 12 14 15 16 16 17 15 17 24 27 35 38 37 32 31 36 42 54 55 46 46 45 41 46 42 42 45 51 43 41 37 31 28 28 27 28 29 25 39 34 26 31 34 33 30 32 36 44 45 39 31 37 36 35
 -4 -3 -4 -3 -1 -3 -3 -3 -3 -4 -4 -2 -4 -3 6 10 7 18 39 33 17 18 21 14 8 7 1 -1 -2 -4 -1 0 8 14 15 13 10 12 12 17 16 18 18 14 12 11 10 22 20 14 12 9 11 8 14 9 14 19 16 16 16 21 22 26 20 18 16 12 9 9 12 15 10 7 15 20 29 26 22 34 29 45 33 14 4 1 3 3 3 3 3 4 4 13 6 15 6 8 7 12 27 21 17 18 21 21 25 23 18 11 9 9 10 11 11 10 13 12 12 15 13 13 13 16 15 13 17 17 18 21 29 28 31 30 32 38 45 44 39 42 55 47 51 47 42 44 42 45 40 30 29 29 25 33 28 25 27 26 33 33 38 30 32 32 28 41 41 32 33 31 33 32 34 34
 -5 1 -3 -4 -4 -2 -2 -3 -3 -3 -3 0 -3 -2 2 3 12 6 22 18 15 11 6 9 -1 4 -2 -3 -2 3 3 1 2 6 5 5 8 12 14 13 17 16 13 9 13 15 20 31 26 11 13 11 8 10 3 18 12 13 11 14 9 19 27 17 17 27 35 12 10 11 6 21 15 10 8 20 21 21 32 31 35 43 37 29 1 -2 6 8 2 3 4 3 4 6 5 6 7 12 18 21 25 28 21 18 20 20 23 21 18 13 12 12 15 10 17 16 13 12 12 13 13 13 14 13 14 14 15 16 20 21 25 32 38 43 44 54 59 52 41 40 41 41 40 44 48 42 43 40 23 25 28 31 24 34 33 29 26 27 32 29 28 27 30 29 32 33 41 44 31 34 31 33 32 35
 -5 -4 -4 -5 -4 -6 -5 -5 -6 -4 -4 -3 -4 -5 -4 -5 -5 -5 3 8 3 6 7 4 -1 -3 -3 2 9 7 9 4 9 10 11 5 12 10 11 10 14 13 27 15 11 12 13 14 14 10 12 14 9 12 13 3 12 16 8 12 13 18 19 17 13 16 11 9 8 5 5 10 6 9 19 19 26 17 30 27 31 37 43 35 2 -1 6 5 3 2 3 4 6 5 6 17 14 16 18 20 32 25 17 18 16 19 22 25 27 21 19 17 14 11 21 15 16 20 27 28 18 14 15 14 21 15 17 16 18 19 22 26 31 40 51 64 57 46 36 26 25 24 24 38 31 26 26 26 23 24 23 24 22 26 27 26 27 28 27 28 29 28 28 36 40 40 35 47 38 33 33 32 33 34
 -4 -5 -7 -4 -3 -4 -6 -6 -5 -5 -6 -4 -5 -1 -5 -6 -5 -5 -3 -6 3 4 -1 -3 -4 -2 -3 0 5 12 18 15 18 21 17 16 13 16 17 14 16 30 28 23 17 22 12 13 13 13 15 11 6 7 15 11 14 9 12 16 20 19 19 18 16 21 16 13 13 5 4 2 5 5 16 11 15 18 20 26 21 31 35 33 5 11 6 0 1 1 4 4 4 9 13 17 18 20 21 24 22 21 17 17 17 24 20 23 28 31 26 22 24 16 29 18 14 19 28 31 26 20 19 16 17 14 15 16 16 18 21 23 34 36 50 51 46 46 35 33 27 21 27 24 25 34 27 25 38 25 23 26 24 25 26 27 26 27 47 57 50 46 48 57 57 75 71 65 60 33 35 35 33 32
 -7 -7 -4 -6 -6 -4 -4 -4 -5 -7 -6 -6 -4 -4 -4 -6 -7 -6 -6 -6 -5 -2 -2 -3 -1 -1 -1 3 7 11 22 19 18 21 21 17 19 21 25 26 25 25 27 27 29 23 18 14 16 13 8 4 6 8 9 11 0 10 13 14 13 14 13 14 16 13 9 5 7 10 4 5 3 4 6 13 16 15 14 19 25 31 27 25 10 9 5 3 2 2 2 2 5 7 10 16 15 19 19 18 14 16 13 14 13 16 18 24 24 22 28 19 21 20 21 21 16 17 25 31 33 26 22 24 23 22 16 18 19 19 21 21 26 41 43 41 36 23 24 31 24 22 21 26 28 30 38 35 24 31 31 23 26 25 25 28 43 36 56 57 62 58 46 61 62 67 66 66 62 57 38 37 35 35
 -5 -4 -6 -7 -4 -4 -5 -6 -5 -6 -6 -6 -6 -6 -5 -6 -5 -6 -5 -5 -2 -4 -4 -4 -3 -3 3 2 8 15 21 28 28 29 27 20 28 37 35 39 56 29 25 33 35 23 29 17 16 12 9 14 18 12 12 9 0 13 8 8 12 11 8 11 12 9 4 4 4 6 3 0 1 -3 -1 0 9 14 14 20 16 21 20 19 5 6 3 2 5 4 12 4 5 8 17 18 19 17 12 16 23 19 16 18 15 18 23 24 22 15 18 15 15 18 18 21 23 24 23 20 23 28 33 31 30 29 21 17 20 18 18 19 21 19 22 20 21 20 21 19 18 21 19 28 28 36 25 27 32 29 24 30 56 40 30 37 45 62 65 66 61 62 64 65 64 62 66 60 65 66 63 51 35 40
 -4 -5 -4 -5 -5 -6 -5 -4 -1 -2 -3 -3 -5 -3 -5 -5 -5 -4 -6 -6 -7 1 -3 -5 -4 -1 -3 4 8 14 14 20 27 36 41 37 28 21 39 50 42 50 52 54 49 37 37 36 34 32 13 14 26 26 14 13 8 1 10 9 10 9 9 7 8 7 5 0 -2 2 -1 -2 0 -2 -3 0 0 -1 1 0 1 3 2 3 3 4 4 2 2 3 6 5 7 8 18 9 9 19 19 21 24 33 27 23 20 16 21 23 23 22 20 18 20 20 18 21 26 29 29 42 25 25 28 40 31 34 27 20 15 15 16 18 16 17 18 19 19 20 14 17 26 21 20 22 20 28 27 31 30 37 42 46 65 64 55 59 57 57 58 45 49 60 60 54 58 60 64 68 62 66 59 59 62 45
 -2 -4 0 -4 -2 -3 0 -5 0 -6 -4 -2 -4 -4 -2 -3 -4 -3 -4 -3 -4 -5 -2 -2 -5 -2 -3 -3 -3 1 1 8 13 11 25 22 12 20 34 34 43 49 48 57 63 68 63 53 53 30 19 17 14 11 10 15 25 24 0 8 10 9 7 7 -3 1 -3 -3 -3 -1 -2 -1 -1 -2 -1 -3 0 1 -3 -1 6 1 2 3 1 4 3 2 1 3 3 4 6 6 7 26 19 18 18 20 25 24 29 24 24 19 22 19 24 29 30 21 20 27 30 30 28 31 34 42 45 30 22 33 39 45 27 17 15 15 16 14 15 15 15 16 31 27 26 19 20 26 44 21 20 21 22 24 26 34 59 60 59 60 54 54 53 48 50 55 59 52 52 57 64 63 65 66 64 60 61 62 51 51
 -3 0 -5 -5 -5 -4 -3 -4 -4 -3 -5 -5 -4 -3 -5 -5 -4 -5 -4 -5 -1 -4 -6 -1 -2 -3 -4 -5 -6 -5 -3 -3 0 -2 2 2 6 8 14 20 30 48 32 43 45 47 71 67 43 37 27 21 16 7 6 8 9 9 1 -2 2 2 -2 -3 -3 -3 0 -3 -2 -3 -3 -2 1 -1 4 2 0 2 -4 -4 3 0 0 1 1 -2 0 1 3 2 15 6 5 5 7 6 6 6 6 9 17 13 19 21 18 18 19 21 21 24 23 25 23 26 34 35 36 33 38 37 32 18 16 34 35 38 20 14 13 16 17 13 18 16 16 16 16 19 18 19 25 32 21 21 20 25 24 36 54 59 55 53 59 60 55 53 53 57 46 55 60 57 58 57 47 58 62 57 55 61 60 54 62 58
 -5 -4 -4 -5 -4 -5 -4 -4 -2 -2 -2 -2 -2 -4 -4 -4 -4 -4 -5 -4 -5 -3 -3 -3 -2 -4 -5 -5 -5 -3 -3 -3 -1 -2 3 3 4 10 10 17 20 23 35 42 54 54 63 74 67 42 33 27 21 14 11 4 6 6 0 -2 -1 -2 -1 -3 -2 -2 -2 0 -1 -4 0 -2 0 1 0 0 2 0 -1 9 -2 1 0 5 -1 2 2 5 4 3 4 4 2 13 6 8 6 10 5 9 6 7 7 10 9 9 10 22 21 18 22 25 28 25 28 32 33 37 35 35 34 30 24 16 14 12 23 15 13 15 15 19 15 14 13 16 15 23 21 19 20 19 23 29 24 25 44 53 49 54 48 57 44 55 55 53 58 48 63 47 42 54 59 46 58 47 59 57 58 54 52 58 59 61
 -5 -5 -5 -5 0 -3 -4 -2 -4 -2 -2 -2 -2 -2 -2 -4 -2 -4 -5 -4 -6 -3 -4 -3 -4 -3 -3 -3 -3 -4 -1 -2 -2 -2 -1 -5 0 0 4 6 7 15 23 29 38 34 39 47 50 55 49 26 27 15 7 5 -3 -3 -2 -4 -2 -4 -2 -2 0 -1 0 -3 -3 -4 -1 1 3 0 0 4 1 2 -1 -2 -2 0 0 -1 0 -1 0 -1 6 10 6 6 4 4 7 2 5 2 12 13 8 9 7 15 7 8 9 9 11 21 27 34 25 25 32 30 29 29 30 43 24 13 12 12 14 17 12 14 15 13 15 21 17 15 16 15 20 17 13 21 21 20 27 44 48 46 54 57 54 54 55 56 52 51 51 51 54 49 52 55 47 55 47 49 43 45 41 52 53 54 53 55 52 50
 -4 -4 -4 -4 -3 -4 -4 2 -4 -1 -5 -2 0 2 -1 -3 -4 -4 -2 -4 -3 -4 -3 -4 -3 -4 -3 -3 -5 -1 -2 -3 -5 -5 -3 -1 -2 -4 -3 1 4 5 9 20 21 31 45 36 47 29 44 31 38 15 1 -2 -3 -3 -1 -4 -3 0 -3 -2 -4 -5 -1 -3 -3 -3 -1 3 -1 -1 1 1 3 2 1 2 -1 0 -1 -1 1 0 1 3 2 3 5 8 7 15 7 8 4 4 3 6 5 4 5 5 6 12 11 9 9 9 16 8 8 8 11 10 11 11 10 11 10 12 18 13 20 13 11 15 13 16 14 13 13 15 15 13 14 16 22 21 18 20 44 53 50 51 48 51 44 50 53 50 49 39 51 48 50 55 59 41 56 58 41 40 40 39 40 48 52 47 51 42 42 45
 -3 -3 -3 0 -5 -4 -3 -3 -1 -5 -5 -3 -3 -2 -3 0 -2 -4 -3 -3 -2 -4 -3 -4 0 -2 -3 -1 -3 -4 -3 -2 -4 -5 -4 -5 -4 -3 -3 -4 -1 4 2 8 13 24 32 28 24 20 17 19 10 -2 0 -3 -4 -1 -1 -1 -4 -5 -3 -3 -1 -2 -2 -3 -2 -2 -1 -2 1 -1 1 0 0 1 3 2 1 2 0 0 0 -1 1 0 2 0 2 2 3 3 3 3 4 4 4 4 5 5 5 5 9 9 6 7 11 7 8 10 9 9 9 10 12 13 13 9 11 9 10 13 11 13 12 11 12 11 12 12 13 13 14 15 15 21 17 19 25 29 38 48 34 39 39 54 50 46 49 50 51 51 47 50 53 56 52 53 51 56 52 40 46 40 53 45 45 35 37 35 32 33
 -4 -4 -4 -2 -4 -3 -4 -4 -3 -5 -3 -2 -5 -3 -3 -3 -2 -2 -4 -2 -1 1 -1 0 -3 -4 -3 -3 -4 -5 -4 -4 -3 -4 -3 -4 0 -1 -3 -1 -1 -1 -2 -3 -1 -3 -3 0 -2 -3 -2 1 -2 2 -3 -4 -4 -4 -3 -4 -2 -4 -3 -3 -4 -2 -4 -1 -3 -3 -2 0 0 8 1 2 -1 5 2 1 3 3 0 0 1 1 -1 1 2 2 3 2 2 4 4 6 7 13 18 24 20 6 8 8 7 10 8 9 9 9 6 8 11 9 14 12 10 9 12 9 8 11 11 15 14 12 13 13 13 12 12 10 13 13 14 15 15 17 18 22 23 24 27 33 33 30 32 33 42 50 51 46 42 45 53 50 53 55 52 54 55 46 52 39 35 32 34 35 36 34 35 35 38 37
 -5 -4 -5 -5 -5 -4 -6 -4 -5 -3 -5 -5 -2 -3 -2 -3 -4 -1 -1 -1 -1 0 -2 0 -2 -4 -3 -3 -4 -4 -4 -5 -1 -1 3 8 5 6 6 21 8 10 8 -4 -4 -1 -2 -2 0 -3 1 13 0 -5 -5 -8 -2 -3 -6 -3 -4 -3 -3 -4 -4 -4 -3 -2 -2 -4 1 -1 0 0 3 3 2 0 1 9 4 2 2 3 3 1 3 4 7 6 9 6 9 7 6 8 15 16 19 14 17 17 15 11 10 8 9 9 9 9 8 11 9 9 12 20 17 14 9 10 12 26 18 16 13 15 23 37 45 42 37 17 14 15 15 16 21 30 26 27 35 32 30 28 27 26 28 31 32 38 52 50 51 32 47 48 50 49 54 49 49 47 37 33 32 32 30 31 33 32 32 33 34 36
 -5 -4 -4 -5 -4 -5 -3 -5 -3 -2 -4 -3 -4 -3 -4 -4 -3 -4 -4 -2 -2 1 -2 -2 -1 -4 -3 -2 -4 -3 -1 2 4 5 6 7 12 10 19 32 30 27 18 10 5 5 12 14 13 9 1 -4 -1 -6 -58 -56 -56 -6 -4 -4 -5 -2 -2 -1 -4 -3 -2 -2 -4 -4 -2 -1 -1 -1 1 0 4 1 3 0 2 2 0 1 1 1 2 3 4 5 5 5 6 7 7 7 15 18 16 18 18 19 23 20 18 17 17 18 19 21 18 19 17 20 13 19 14 11 10 9 24 26 17 15 23 25 32 30 22 32 21 25 17 16 20 20 26 25 30 43 32 36 26 46 46 31 30 30 35 31 36 36 32 33 50 46 50 37 32 41 30 29 30 30 30 32 31 30 30 32 31 34 38 38
 -5 -4 -4 -5 -5 -5 -4 -4 -4 -4 -4 -3 -3 -3 -4 -4 -5 -4 -3 -3 -2 -3 -3 -2 -2 -2 -3 -2 -4 -4 -5 1 0 0 5 9 13 16 18 23 31 21 29 34 19 5 6 9 10 21 21 12 10 16 9 10 7 -3 -5 -2 -3 -3 -3 5 -3 -1 -2 -3 -1 -2 -2 0 -2 -1 8 0 -1 -1 0 0 2 2 1 2 2 4 3 3 4 19 7 6 6 7 7 11 17 25 20 21 20 17 19 20 20 19 20 22 18 18 18 18 19 21 16 11 9 12 22 19 21 14 13 14 18 30 32 22 16 12 15 14 15 17 23 25 23 29 30 40 29 36 25 32 27 28 29 28 27 25 28 32 30 31 29 35 46 30 27 26 28 28 28 28 27 28 30 31 29 32 32 33 34 36
 -5 -6 -4 -5 -5 -4 -5 -6 -3 -5 -4 -3 -3 -1 -3 -2 -2 -3 -2 -3 -3 -3 -2 -1 0 -1 -2 -2 -1 -3 -5 -3 -3 2 7 12 19 24 24 23 23 20 20 13 8 6 4 3 3 1 3 9 9 6 7 11 13 7 1 0 -1 -2 -2 -5 -1 5 -4 2 2 -1 -3 -2 -3 -1 -1 -1 -1 -1 0 0 2 4 1 1 2 2 3 3 6 3 5 4 7 8 20 22 25 26 27 27 24 25 22 30 27 25 25 21 21 21 20 20 19 19 16 18 15 12 10 13 18 11 11 13 12 11 12 12 26 15 14 12 15 16 21 22 22 23 25 25 25 23 22 22 23 23 25 25 27 31 26 27 26 26 26 38 35 28 26 26 27 27 28 29 28 27 28 29 28 30 32 33 35 37
 0 -5 -5 -5 -4 -6 -4 -4 -3 -5 -3 -3 -3 -2 -2 -2 -4 -3 -2 -2 -3 -2 1 -2 -1 -2 -3 -3 -3 -3 -6 -4 -3 0 9 12 19 24 22 23 22 21 18 18 16 9 2 1 1 0 -2 8 8 6 1 -1 -2 -2 -2 -2 2 -3 -2 -2 -3 -2 -3 -1 0 -2 -2 -1 -2 -2 -1 -1 -1 -1 1 2 -1 2 1 1 1 2 4 5 3 21 24 23 34 28 26 25 28 27 43 29 31 28 25 29 31 31 33 29 25 28 23 25 22 20 21 24 20 16 15 14 10 13 10 15 12 16 11 13 12 15 16 12 14 15 16 18 18 19 19 19 18 19 21 25 25 23 20 21 22 22 22 26 23 22 24 24 23 25 26 29 25 26 26 28 27 26 27 29 30 31 31 30 34 35
 0 -5 -4 -5 -5 -4 -4 -5 -4 -1 -4 -5 -4 -5 -2 -4 -3 -3 -2 -3 -3 -1 -2 -1 -2 0 -2 -4 -4 -4 -6 -3 -5 1 0 3 11 12 20 20 18 13 14 18 19 14 4 -2 3 5 -65 -95 -13 5 1 -1 -1 -1 0 -2 -2 -2 0 -2 -2 -3 -3 -2 3 4 5 -3 -1 -3 -1 0 -1 -1 2 1 -1 -1 1 1 1 2 3 4 12 22 36 35 43 36 41 40 34 40 40 35 27 27 26 32 42 36 46 42 40 33 27 30 27 26 26 28 28 23 25 11 12 10 11 16 14 12 14 17 14 15 17 15 15 17 16 18 17 17 17 18 17 18 18 18 18 19 21 23 20 20 22 21 19 22 21 22 22 21 23 22 22 24 26 23 25 28 27 30 29 28 31 31 29 34
 0 -5 -4 -2 -3 -4 -1 -5 0 -4 -4 -4 0 -4 -4 -3 -4 -3 -4 -3 -3 1 -1 0 -3 -3 -2 -3 -3 -3 -3 -4 -4 -5 -2 -4 0 -2 1 3 13 12 3 16 16 8 3 -1 1 4 8 -23 -67 2 1 3 -2 -3 -3 -5 -3 -5 -3 6 -2 -2 -3 0 1 4 4 -2 -1 -2 -2 -1 -2 -1 0 0 0 0 1 2 4 11 11 18 24 25 30 40 40 45 46 39 43 43 46 41 38 41 29 28 35 36 41 40 36 27 30 27 28 28 27 28 33 44 34 15 16 11 11 12 12 11 12 14 17 16 16 17 21 22 23 23 25 17 14 16 16 18 19 18 19 19 21 22 20 22 30 19 20 21 20 20 19 20 22 21 22 23 23 24 22 23 26 28 29 28 29 30 26 28
 0 -3 -5 -4 -3 -4 -3 -4 -4 -4 -4 -3 -3 -4 -6 -3 -4 -4 -3 3 1 -3 -2 -2 -2 -2 0 -5 -4 -4 -3 -4 -4 -5 -3 0 -4 0 -2 -3 -4 -5 -3 -3 0 4 -1 -3 0 2 1 2 -3 -3 -3 -3 0 -2 -1 -3 -4 -5 -3 4 -1 0 -1 -1 -1 0 1 -1 -1 -2 -1 -1 2 5 6 4 5 3 2 3 4 10 14 20 20 19 21 27 25 43 42 42 35 40 37 42 33 28 30 28 29 32 33 31 28 26 25 27 24 27 23 20 23 21 17 28 19 18 12 13 14 11 14 15 16 19 22 27 28 29 37 37 32 27 24 23 20 18 18 24 21 17 20 20 18 18 18 22 20 19 21 20 21 21 21 20 21 22 22 21 23 29 25 25 25 26 24 28 27 30
 0 -2 -5 -5 -4 -2 -4 -3 -2 -5 -5 -5 -5 -4 -4 -2 -3 -3 -4 -3 -3 -3 0 -1 -3 -4 -4 -4 -5 -3 -3 -2 -1 -3 -4 -2 -5 -5 -5 -4 -4 -5 -5 -6 -5 -4 -5 -6 -6 -4 -6 -3 -4 -3 -2 -2 -1 -3 -4 -4 -4 -4 -4 -1 -2 -2 -2 -2 0 2 6 9 9 6 7 2 2 8 7 9 9 9 2 3 7 12 15 20 18 18 17 15 15 16 32 27 27 32 42 27 26 30 29 29 32 30 28 27 26 28 27 25 22 28 20 25 23 25 24 23 26 21 19 16 17 14 15 13 14 16 18 25 31 33 33 37 36 34 42 28 41 35 27 25 21 22 19 19 21 19 19 19 19 21 21 21 20 20 22 21 22 23 22 26 25 27 27 25 29 29 29 28 28 29
 0 0 0 1 1 -4 -4 -3 -4 -3 -4 -2 -4 -5 -5 -3 -4 -5 -3 -3 -2 -2 -1 -2 1 -3 -3 -3 -3 -2 -4 0 -3 -3 -5 -3 -3 -4 -3 -5 -4 -3 -1 -4 -2 -1 -3 -4 -5 -5 -4 -3 -4 -4 -4 -3 -4 -4 -5 -5 -4 -5 -3 -2 -2 -1 2 -1 0 5 5 9 9 12 7 4 7 5 9 9 10 8 5 3 2 10 12 17 15 12 10 15 18 22 22 25 31 31 28 27 28 29 29 28 32 30 28 29 28 26 26 21 22 22 21 25 22 26 21 19 29 29 21 19 15 17 19 17 15 14 14 19 21 26 29 34 37 45 59 66 58 44 33 41 48 49 33 22 25 22 22 21 20 21 21 20 21 22 22 23 23 23 27 24 27 27 29 30 30 31 30 30 32 33
 0 0 0 0 0 -1 -4 -1 -4 -4 -3 -4 -3 -4 -5 -4 -3 -3 -3 -3 -3 -3 -1 -3 -1 0 -3 -1 -2 -1 -3 -2 -4 -4 -2 -2 -3 -2 -3 -4 -3 -5 -6 -5 -3 -3 -4 -6 -4 -4 -4 -4 -3 -3 -3 -4 -4 -2 -5 -3 5 4 3 -1 -1 -1 -2 -2 -3 1 1 2 0 3 8 6 1 5 9 10 8 9 10 3 3 9 14 10 11 9 10 14 18 21 36 28 27 29 30 26 26 26 28 27 33 28 28 27 27 27 26 26 23 21 26 32 30 30 31 22 26 31 21 17 15 17 20 17 18 14 15 15 16 19 25 28 30 32 34 43 42 42 50 56 48 42 31 40 34 27 26 21 22 22 21 21 23 21 23 22 23 25 26 27 25 26 28 30 29 29 32 34 32 36
 0 0 0 0 0 0 0 4 -1 -4 -3 -4 -3 -2 -4 -3 -5 -2 -3 -4 -1 -3 -4 -2 0 -1 1 -3 -2 -1 -2 -3 -3 -4 -3 -3 -1 -4 -3 -4 -4 -6 -5 -4 -4 -3 -3 -3 -4 -3 -3 -3 -5 -2 -4 -2 -3 -3 -3 -2 -3 -3 3 -1 -2 1 -2 1 2 1 6 5 4 5 5 6 4 6 6 4 6 8 10 6 3 4 6 6 8 8 8 13 15 17 24 23 22 25 29 44 37 34 31 33 37 30 28 30 27 29 26 25 26 25 25 26 26 29 20 26 27 20 15 18 25 23 23 15 18 19 14 15 17 20 19 24 26 30 29 37 36 49 59 59 55 55 41 44 47 30 28 26 26 23 22 23 23 25 23 24 22 26 29 28 26 26 26 28 28 30 33 31 34 32
 0 0 0 0 0 0 0 1 -4 -3 -4 -4 -4 -3 -2 -5 -5 -3 -3 1 -1 -2 -2 -3 0 0 -3 -3 -2 -2 -3 -2 -2 -1 -3 -3 -3 -3 -5 -4 -5 -4 -3 -5 -4 -2 -3 -2 -4 -4 -4 0 -1 -2 0 1 -2 -2 -1 -1 0 2 -2 -1 0 1 -2 1 1 5 2 4 4 4 4 3 7 9 5 4 6 9 7 10 9 6 4 5 5 9 9 10 18 24 24 23 24 32 34 36 40 40 38 37 28 31 30 26 29 30 26 25 25 26 33 38 24 24 27 22 17 16 18 23 27 23 33 22 22 20 17 18 17 19 18 26 26 29 30 33 37 44 48 59 64 72 47 43 40 42 35 35 33 26 24 23 24 25 24 26 26 29 27 27 27 28 29 29 29 29 30 32 32 34
 0 0 0 0 0 0 0 0 1 -4 0 -4 -5 -3 -3 -1 -2 0 -1 5 0 -1 0 -2 0 -1 -1 -4 -2 -2 -4 -5 -4 -5 -3 -2 -3 -3 -2 -4 -3 -4 -4 -3 -3 -3 -2 -3 -2 -2 0 -1 2 1 2 2 4 6 4 3 4 2 2 1 2 2 0 0 1 2 3 6 8 8 9 6 9 9 7 4 4 8 7 8 9 7 6 7 7 9 8 13 18 17 20 20 23 24 25 34 35 34 28 26 29 27 26 26 27 27 29 28 25 26 29 28 40 25 26 19 18 15 21 26 37 34 34 29 28 28 23 20 23 26 26 22 26 26 29 32 37 40 55 64 64 70 62 66 57 49 43 40 36 29 27 29 26 24 28 26 27 37 39 30 26 33 29 28 28 28 30 31 34 35
 0 0 0 0 0 0 0 0 0 0 0 -1 -3 -4 -2 0 0 -1 0 0 -1 -1 -1 -1 -4 -1 -1 -2 -2 -3 -3 -3 -4 -5 -2 2 3 -1 -1 -3 -3 -3 -3 -2 -2 -5 -2 -4 -3 -2 -3 -4 -2 -3 -1 2 4 3 7 0 -1 1 -2 -2 -1 3 2 2 1 4 6 5 6 7 7 7 7 7 8 4 3 5 5 11 12 9 6 7 10 11 11 11 14 14 16 20 20 22 22 23 41 42 26 22 26 27 27 30 27 26 27 25 25 27 26 28 36 38 31 24 18 17 23 34 22 23 27 42 34 29 32 32 30 29 27 25 31 31 30 31 38 52 68 59 64 68 72 68 62 59 50 47 37 36 33 29 27 27 27 30 34 48 28 26 27 25 28 27 29 27 27 31 30 33
 0 0 0 0 0 0 0 0 0 0 0 0 0 0 1 -2 0 -1 0 0 0 -2 -1 -2 0 -3 -4 -3 -3 -3 -3 -4 -2 -1 -2 -3 -3 -2 -2 -2 -5 -4 -4 -4 -1 -2 -3 -2 0 -2 -3 -4 -3 -4 -2 -2 1 1 0 2 1 -3 -3 1 0 0 3 1 2 6 5 10 6 7 9 10 10 7 6 4 1 8 12 12 12 13 12 8 9 13 13 15 15 16 15 30 21 24 27 24 31 29 20 25 25 26 27 27 27 27 27 25 29 28 30 39 37 26 26 19 19 19 34 31 33 33 33 34 32 28 29 25 31 31 27 29 24 29 31 34 38 47 56 68 86 76 80 77 64 55 49 45 42 34 33 37 29 30 30 30 30 29 34 33 33 28 32 31 30 35 35 34 36 39
 0 0 0 0 0 0 0 0 0 0 0 0 0 0 0 1 -1 -1 -2 0 -2 -2 -1 -1 3 -1 -2 -3 -1 -2 0 -2 -3 -2 -3 -3 -2 -3 -2 -1 -3 -3 -3 -2 -4 -4 -4 -2 -2 -2 -3 -3 -4 -3 -4 -4 -3 0 0 2 0 0 2 4 4 7 7 5 7 13 11 13 8 9 7 7 9 8 4 1 4 5 8 10 26 28 30 14 10 13 18 21 22 20 20 18 21 21 18 22 21 19 20 20 26 23 28 29 36 27 29 29 29 30 29 32 31 27 27 23 22 25 31 41 36 33 30 29 27 27 27 29 28 28 32 29 26 30 30 32 37 44 52 68 86 94 87 96 80 77 71 61 60 39 42 34 32 33 34 32 29 29 30 35 32 29 36 39 35 35 37 38 44 41
 0 0 0 0 0 0 0 0 0 0 0 0 0 0 0 0 0 0 2 -3 -1 -1 -4 -3 -4 -2 0 2 -2 -2 -3 -2 -3 -3 -2 -4 -5 -2 -3 -5 -1 -3 -4 -4 -4 -4 -2 -3 -3 -3 -2 -4 -4 -3 -3 0 1 3 2 2 3 2 5 8 11 12 11 14 13 11 7 13 7 6 12 7 7 6 8 4 7 9 8 12 23 32 32 32 14 17 17 20 17 21 17 15 18 22 16 17 20 22 21 26 29 34 32 34 26 25 24 32 28 27 30 29 32 24 36 31 28 24 29 30 37 30 27 27 23 27 27 27 29 31 31 31 32 31 32 33 38 43 50 54 66 74 86 85 66 55 54 63 44 47 42 39 35 33 29 28 24 25 25 31 31 31 39 38 39 40 38 38 40 34
 0 0 0 0 0 0 0 0 0 0 0 0 0 0 0 0 0 0 -3 -2 0 -2 -2 -2 -3 -1 -2 -3 -4 -3 -2 -3 -3 -3 -3 -3 -3 -3 -2 -2 -2 -1 -3 -3 -3 -2 -4 -2 -3 -2 -2 -3 -3 -4 -3 -4 -2 1 3 7 8 7 10 7 10 12 10 8 8 7 9 11 9 10 9 6 3 4 3 1 8 9 7 9 12 13 13 13 23 14 14 14 13 13 17 12 14 16 16 18 19 21 30 38 26 26 24 23 21 25 22 25 26 32 37 26 34 36 23 23 25 32 30 27 28 27 24 27 28 28 30 29 31 32 34 36 38 36 36 37 45 48 54 61 69 84 87 85 81 69 70 63 46 46 40 36 43 29 28 26 22 24 27 27 32 35 30 36 37 38 38 37 30 28
 0 0 0 0 0 0 0 0 0 0 0 0 0 0 0 0 0 0 0 -3 -3 -3 -3 -1 -2 -3 -3 -4 -3 -3 -6 -2 -3 -4 -3 -1 -2 -4 -3 -3 -4 -2 -4 -2 -2 -1 -3 -3 -1 -2 -3 -4 -3 -2 -4 -3 -3 -1 4 9 11 13 12 10 9 8 9 6 6 9 10 8 11 7 8 7 6 7 5 3 2 6 7 9 6 11 21 28 33 15 15 14 12 11 14 13 10 12 13 18 22 20 21 22 30 34 34 21 23 22 21 26 22 24 24 23 22 19 18 23 24 25 22 25 25 25 28 29 31 33 33 35 34 37 34 38 40 38 43 43 51 60 64 73 78 66 79 84 71 67 62 47 55 41 37 45 40 38 25 23 23 25 27 27 27 26 29 33 35 39 32 30 27 25
 0 0 0 0 0 0 0 0 0 0 0 0 0 0 0 0 0 0 0 1 -3 -2 0 -3 -3 -3 -2 -1 0 -3 -1 0 -3 -1 -3 -3 -3 -1 -3 -3 -3 -3 -4 -3 -3 1 -5 -3 -4 -3 -1 -2 -4 -3 -4 -3 -3 -1 3 5 3 5 10 11 7 6 6 4 5 8 5 5 8 10 5 10 9 7 6 4 3 3 4 3 3 11 13 22 26 25 14 13 13 12 10 11 11 10 13 14 14 18 20 24 30 21 19 17 21 18 19 20 25 20 19 20 18 20 21 23 22 23 24 25 28 31 32 34 34 34 37 38 39 42 40 37 43 44 44 51 58 52 56 61 67 54 62 63 65 48 50 67 68 68 57 46 38 31 25 24 22 25 27 29 31 28 29 31 29 28 28 30 33 34
 0 0 0 0 0 0 0 0 0 0 0 0 0 0 0 0 0 0 0 0 1 0 1 1 -3 -3 0 -3 -2 -2 -2 -1 -2 -3 -4 -3 -2 -3 -2 -3 -2 -2 -2 -2 -2 -4 2 -4 -3 -2 -3 -1 -2 -4 -3 -4 -2 -2 2 4 9 5 9 8 6 7 9 8 7 8 11 7 6 9 9 7 5 6 6 4 2 2 3 15 9 11 10 14 14 11 10 13 14 12 10 11 12 15 11 11 12 14 22 25 26 19 21 19 32 16 18 21 23 22 18 19 18 18 22 29 26 24 27 27 31 35 36 38 38 39 41 41 47 44 41 42 42 46 41 43 49 53 51 46 41 51 47 47 46 45 63 61 56 52 48 34 37 28 27 23 23 24 27 31 29 31 29 31 26 24 23 27 30 33
 0 0 0 0 0 0 0 0 0 0 0 0 0 0 0 0 0 0 0 0 0 1 -1 -1 0 0 -2 -4 -2 -2 -2 -3 -2 -1 -3 -3 -3 -3 -3 -2 -3 -1 -2 -2 -3 -1 -1 -1 -3 -2 -3 -3 -3 -1 -3 -3 -3 -1 -3 -2 3 3 3 4 4 6 3 4 5 7 7 11 7 7 4 6 5 3 0 -2 1 2 5 4 8 7 8 10 15 13 14 15 14 12 10 10 10 10 9 11 20 28 30 30 29 16 17 20 15 18 18 18 20 22 25 28 23 22 25 29 32 30 27 29 30 25 30 29 32 36 39 42 42 42 37 40 40 38 44 49 47 44 40 49 50 59 58 66 62 51 58 62 57 37 32 28 27 31 26 26 21 24 23 29 32 36 36 27 31 29 28 25 26 29
 0 0 0 0 0 0 0 0 0 0 0 0 0 0 0 0 0 0 0 0 0 -2 1 7 -1 0 -5 -1 -3 -2 -2 -2 -1 -2 -2 -1 -1 -2 -2 -3 -2 -3 -3 -3 -1 -3 -4 -2 -2 -4 -2 -4 -3 -2 -3 -3 -2 -1 -3 -3 -2 -2 1 2 12 12 5 5 5 8 8 9 13 9 5 5 5 0 1 1 3 4 8 12 11 11 16 32 15 11 13 14 13 12 9 9 8 9 10 10 15 32 22 30 13 16 20 22 21 22 22 21 23 22 23 23 22 27 30 36 30 31 27 28 27 27 27 27 32 30 40 35 39 39 42 36 38 41 42 41 43 44 39 47 53 54 67 64 63 56 51 51 55 47 44 44 30 28 25 26 25 21 23 29 31 34 37 28 25 24 29 37 32 34
 0 0 0 0 0 0 0 0 0 0 0 0 0 0 0 0 0 0 0 0 0 0 3 1 -1 -3 -2 -3 -2 -2 -2 -2 -1 -2 -2 1 -3 -3 -2 -2 -2 -3 -3 -3 -3 -3 -3 -3 -2 -3 -4 -1 0 -2 -3 -4 0 0 -1 0 -2 2 2 5 8 7 6 6 9 9 12 11 9 13 7 7 4 1 2 2 7 9 11 13 10 12 22 25 20 16 13 8 8 10 10 10 10 9 10 14 13 11 14 16 18 19 21 20 24 25 23 22 24 24 23 24 21 21 21 27 28 29 24 25 22 22 27 25 21 20 27 25 30 33 33 34 36 38 37 37 39 34 34 36 42 42 45 49 49 54 53 54 45 50 42 52 48 36 26 25 25 21 25 28 30 29 29 22 29 28 28 24 25 24
 0 0 0 0 0 0 0 0 0 0 0 0 0 0 0 0 0 0 0 0 0 0 0 1 0 -1 -1 -2 -2 -3 -3 -2 -3 -1 -3 -1 -3 -4 -4 -3 -2 -3 -1 -3 -4 -3 -5 -4 -4 -3 -3 -3 -4 -3 -4 -4 1 -2 -1 1 2 1 4 2 4 6 3 2 5 5 10 6 7 8 7 6 6 3 2 4 9 9 8 8 24 10 6 20 19 16 6 7 10 7 8 7 9 14 14 17 17 17 18 19 19 18 23 20 24 23 23 21 21 19 18 25 27 19 16 20 15 27 24 25 18 20 25 27 43 41 28 26 29 33 32 28 35 32 30 30 27 29 28 29 34 38 38 40 37 37 40 39 39 35 36 36 37 31 27 24 23 23 25 28 26 21 21 21 22 24 23 23 22 22
 0 0 0 0 0 0 0 0 0 0 0 0 0 0 0 0 0 0 0 0 0 0 0 1 -4 -1 0 -2 -3 -3 -1 -2 -2 -2 -3 -3 -3 -2 -4 -3 -4 -4 -4 -3 -3 -3 -3 -4 -3 1 -3 0 -4 -4 1 -4 -3 -2 -3 0 2 -1 -1 0 1 3 5 5 4 4 3 10 4 3 3 4 2 3 1 4 6 7 6 7 5 2 15 3 4 6 10 7 7 8 9 10 13 15 14 16 17 18 18 18 17 19 21 18 21 20 22 22 26 22 21 21 16 14 17 24 24 37 31 29 29 29 29 40 30 31 31 35 32 31 30 29 30 27 27 26 27 28 28 29 28 30 29 28 34 32 30 29 26 25 27 30 25 26 22 20 21 20 24 24 22 19 21 19 22 23 25 22 24 24
 0 0 0 0 0 0 0 0 0 0 0 0 0 0 0 0 0 0 0 0 0 0 0 0 3 -2 -3 -4 -1 -3 -2 -2 -3 -3 -3 -4 -1 -3 -4 -4 -4 -3 -4 -3 -4 -2 -1 -2 -3 -4 -4 -4 -5 -2 -4 -4 -4 -3 -3 -3 -2 -1 -1 -2 -1 -1 2 3 -1 5 1 3 2 -1 5 3 2 3 2 4 14 17 5 4 4 3 4 7 8 10 8 11 9 11 11 11 15 14 15 16 18 17 17 17 18 20 21 20 22 23 23 25 26 28 26 22 21 18 14 18 16 22 25 33 24 23 23 25 24 29 28 34 33 33 34 30 30 28 30 27 25 28 24 25 24 24 23 28 30 29 25 26 26 21 24 22 21 19 21 24 28 24 23 21 21 21 32 24 20 22 27 26 29 32
 0 0 0 0 0 0 0 0 0 0 0 0 0 0 0 0 0 0 0 0 0 0 0 0 0 0 -2 -2 -4 -3 -3 -3 -3 -3 -3 -2 -2 -3 -3 -3 -4 -1 -4 -3 -3 -3 0 -2 -4 -5 -3 -4 -4 -5 -3 -4 -1 -3 -4 -4 2 0 -1 -1 -1 0 3 2 1 4 3 5 3 3 1 2 3 7 2 3 7 1 1 5 9 6 7 8 6 7 7 7 9 6 10 12 15 15 15 15 17 15 17 18 17 21 24 22 22 20 21 23 25 23 23 19 19 13 13 15 19 16 20 35 20 27 25 27 28 30 31 43 39 34 30 31 31 31 31 27 26 27 26 25 23 23 24 27 23 22 22 23 20 22 19 22 22 23 24 22 23 23 21 23 24 22 25 21 23 24 24 23 27 28
 0 0 0 0 0 0 0 0 0 0 0 0 0 0 0 0 0 0 0 0 0 0 0 0 0 1 -2 -1 -3 -3 -3 -4 -2 -1 -3 -1 -2 -3 -2 -3 -3 -4 -3 -2 -3 -3 -2 -4 -3 -4 -3 -2 -5 -4 -4 -2 -1 -5 -4 -2 -3 -3 -2 -1 -1 2 4 2 8 3 11 6 7 4 4 4 4 8 5 4 16 2 7 4 6 8 6 8 8 6 8 8 10 13 12 15 16 22 15 13 11 18 19 17 21 21 22 21 22 22 17 20 27 21 15 16 14 12 14 18 19 23 28 26 27 27 28 30 30 46 48 47 45 50 33 38 35 38 34 35 28 30 28 27 28 29 32 22 22 26 26 25 26 22 22 22 22 24 21 23 24 22 22 21 23 23 24 22 24 29 32 28 27 32
 0 0 0 0 0 0 0 0 0 0 0 0 0 0 0 0 0 0 0 0 0 0 0 0 0 0 -3 -3 -2 -3 -3 -3 -2 0 -3 -3 -3 -2 -2 -2 -2 -2 -3 -3 -4 -1 -1 -3 -3 -4 -3 -3 -5 -4 -3 -3 -4 -4 -4 -3 -4 -1 -3 -2 0 0 0 2 5 3 7 7 1 6 5 6 8 6 6 9 9 9 6 4 9 6 9 10 9 11 10 10 12 12 14 16 11 15 13 16 12 16 17 18 16 17 17 21 20 19 14 17 37 33 31 18 16 12 16 19 23 26 26 24 29 31 29 34 39 35 37 37 46 43 33 36 38 36 36 38 31 33 28 29 28 31 30 26 24 26 24 23 24 23 24 21 21 22 24 28 23 29 22 25 28 23 24 24 27 25 28 26 29 32
 0 0 0 0 0 0 0 0 0 0 0 0 0 0 0 0 0 0 0 0 0 0 0 0 0 0 0 -2 -3 -3 -3 -3 -3 -3 -3 -4 -2 -4 -2 -2 -2 -1 -3 -2 -3 -2 -3 -2 -2 -1 -1 -1 -5 -4 -4 -4 -5 -3 -1 -4 -4 -4 -3 0 3 1 -1 2 1 4 0 6 4 6 8 5 5 4 7 7 8 6 9 8 9 8 9 8 7 9 9 11 11 11 10 11 15 12 15 19 21 15 13 24 16 19 22 19 20 29 13 12 14 31 32 30 14 15 14 15 15 22 28 21 29 31 32 33 30 34 39 35 42 40 32 36 43 35 33 32 34 32 29 27 28 29 30 33 31 27 30 30 27 24 22 22 21 23 22 27 24 19 23 24 22 31 29 23 25 25 35 28 26 29
 0 0 0 0 0 0 0 0 0 0 0 0 0 0 0 0 0 0 0 0 0 0 0 0 0 0 0 -2 -3 -3 -3 -3 -3 -3 -2 -3 -2 -2 -1 -1 -4 -3 0 -3 -2 -2 -2 -2 -4 -2 -4 -4 -3 -4 -4 1 -2 -3 -3 -3 -3 -1 0 1 -2 2 1 5 6 7 7 5 9 12 8 10 11 16 8 8 10 10 7 14 10 11 11 11 10 6 7 7 8 11 12 13 14 16 15 14 15 14 13 28 29 14 16 16 15 17 12 11 17 11 13 15 15 20 25 22 21 19 21 19 26 27 33 31 31 33 33 32 33 32 41 47 41 32 40 41 33 36 31 32 34 31 35 35 35 31 33 31 31 27 34 23 25 23 23 23 21 22 28 29 35 38 27 23 22 22 29 38 36 28
 0 0 0 0 0 0 0 0 0 0 0 0 0 0 0 0 0 0 0 0 0 0 0 0 0 0 0 0 -3 -3 -4 0 -3 -3 -1 -1 -2 -2 -3 -3 -3 -1 -3 -1 -3 -2 -2 -4 -3 -2 -3 -4 -3 -2 -3 -4 -4 -3 -2 2 -3 -1 -2 -5 -3 0 0 2 4 5 8 7 13 13 11 11 10 12 9 7 12 13 13 12 12 10 12 8 11 10 8 6 10 10 13 17 15 16 17 14 14 13 12 10 15 10 9 9 10 10 14 14 12 7 12 14 20 21 24 28 22 20 24 19 21 31 25 30 33 34 25 33 32 34 33 35 36 35 31 35 37 34 35 32 33 39 33 33 42 39 34 35 32 27 29 23 24 23 24 25 28 23 31 27 25 37 35 24 21 23 26 27 24 29
 0 0 0 0 0 0 0 0 0 0 0 0 0 0 0 0 0 0 0 0 0 0 0 0 0 0 0 0 0 -4 -3 -3 -3 -2 -3 -2 -2 -2 -3 0 -2 -3 -1 -4 -3 -3 -1 -3 -2 -3 0 -1 -2 -1 -2 -1 -2 -2 -4 -3 0 -2 -3 -3 -1 -3 -3 7 12 13 17 14 12 7 14 8 9 10 9 8 7 7 8 8 9 7 7 15 8 8 8 10 11 13 13 13 14 15 23 12 18 11 7 13 14 7 8 8 10 14 12 19 9 14 9 14 20 25 28 31 27 25 24 29 32 34 26 25 22 25 24 25 29 33 35 35 35 32 32 35 32 35 39 34 33 34 42 44 39 40 36 36 33 34 33 38 32 30 21 22 26 23 18 25 27 27 35 22 26 28 0 0 0 26
 0 0 0 0 0 0 0 0 0 0 0 0 0 0 0 0 0 0 0 0 0 0 0 0 0 0 0 0 0 0 0 -1 1 -3 -2 -3 -1 -2 0 -4 -2 -3 0 0 0 -3 -2 0 -1 0 -2 -3 -2 -2 -1 -2 -2 -3 1 -1 -1 -3 -4 -5 -1 -4 0 10 10 20 15 14 15 13 11 7 8 10 9 9 6 10 9 16 16 13 10 10 10 7 7 10 11 12 14 13 13 11 25 14 7 7 6 12 17 16 13 13 12 17 14 18 10 9 12 15 17 21 24 28 25 27 24 30 25 27 23 21 23 22 25 25 28 32 32 36 38 35 36 37 31 37 41 39 44 40 41 42 40 41 45 39 36 36 33 34 32 29 22 22 22 26 18 43 30 27 23 24 0 0 0 0 0 0
 0 0 0 0 0 0 0 0 0 0 0 0 0 0 0 0 0 0 0 0 0 0 0 0 0 0 0 0 0 0 0 0 0 0 0 3 -1 -2 -1 -2 -3 -1 0 0 -1 -1 0 -2 -1 -3 -1 0 -2 -2 -1 -2 1 0 -1 -3 -2 -3 -2 -4 -3 -5 2 6 6 12 13 14 13 17 16 11 8 6 7 12 11 15 16 14 12 13 10 11 10 9 8 14 12 11 8 7 6 5 4 4 5 4 9 20 10 10 11 12 9 12 14 14 10 10 9 10 17 26 29 32 32 28 31 29 30 25 27 24 30 26 29 42 46 46 35 33 36 37 36 38 39 40 41 40 50 56 51 56 51 50 39 42 33 32 32 34 30 27 26 22 20 34 30 34 25 30 0 0 0 0 0 0 0 0
 0 0 0 0 0 0 0 0 0 0 0 0 0 0 0 0 0 0 0 0 0 0 0 0 0 0 0 0 0 0 0 0 0 0 0 0 0 0 0 0 1 -1 -1 -1 -1 0 0 0 1 0 0 -2 -2 0 -1 -1 -3 -3 1 -3 -3 -4 -4 0 0 -3 -2 5 9 10 14 13 11 13 -6 7 8 7 8 11 17 19 14 16 11 14 15 10 9 11 10 10 12 10 8 3 14 25 18 22 22 22 24 23 12 10 17 15 21 15 15 14 7 8 13 15 19 24 26 32 37 31 30 28 33 34 28 26 25 24 39 40 46 49 41 37 35 36 38 40 36 32 36 40 43 51 52 50 48 46 49 35 37 0 0 0 0 29 25 22 20 15 19 20 0 0 0 0 0 0 0 0 0 0
 0 0 0 0 0 0 0 0 0 0 0 0 0 0 0 0 0 0 0 0 0 0 0 0 0 0 0 0 0 0 0 0 0 0 0 0 0 0 0 0 1 0 3 -1 -1 -1 1 0 1 0 0 0 -2 -1 -2 -3 3 -1 -2 -2 -3 -2 -4 -4 -2 -4 0 4 7 21 12 14 18 19 10 13 9 9 17 13 15 17 10 13 10 15 13 10 12 13 11 9 9 11 8 5 6 21 24 13 13 11 11 11 12 13 12 13 17 11 7 7 7 20 22 14 19 23 30 39 42 32 29 28 29 25 28 22 29 38 36 41 40 41 37 34 35 37 39 40 34 37 34 33 33 34 38 42 48 47 50 54 0 0 0 0 0 0 0 0 16 17 0 0 0 0 0 0 0 0 0 0 0 0
 0 0 0 0 0 0 0 0 0 0 0 0 0 0 0 0 0 0 0 0 0 0 0 0 0 0 0 0 0 0 0 0 0 0 0 0 0 0 0 0 0 0 0 2 0 0 0 0 1 -1 -1 -3 -3 -2 -3 -2 -2 -2 -2 -3 -2 -4 -2 -2 -1 -2 -1 2 13 12 13 3 5 9 11 13 9 7 9 9 16 13 11 9 12 10 12 13 10 15 22 10 7 7 2 1 18 17 8 6 8 9 18 13 13 15 16 17 20 6 6 6 10 14 20 20 20 23 25 29 26 29 23 28 26 22 21 22 25 34 34 42 40 32 34 33 31 38 37 34 38 37 37 38 34 43 45 34 36 43 49 0 0 0 0 0 0 0 0 0 0 0 0 0 0 0 0 0 0 0 0 0 0 0
 0 0 0 0 0 0 0 0 0 0 0 0 0 0 0 0 0 0 0 0 0 0 0 0 0 0 0 0 0 0 0 0 0 0 0 0 0 0 0 0 0 0 0 0 1 1 1 0 0 2 -3 1 -2 -2 -2 -2 -3 -1 -2 0 -1 -2 -3 -4 2 0 1 1 5 4 4 6 9 12 8 10 12 9 8 11 11 13 13 11 12 10 9 8 9 9 22 13 15 3 0 3 8 6 8 8 9 10 10 14 12 17 20 8 5 6 6 7 10 17 16 21 20 18 23 21 32 30 24 25 21 22 25 23 23 24 27 26 30 32 33 33 34 35 35 40 39 38 36 33 36 34 36 34 37 45 42 37 0 0 0 0 0 0 0 0 0 0 0 0 0 0 0 0 0 0 0 0 0 0
 0 0 0 0 0 0 0 0 0 0 0 0 0 0 0 0 0 0 0 0 0 0 0 0 0 0 0 0 0 0 0 0 0 0 0 0 0 0 0 0 0 3 0 0 -1 0 0 0 1 -1 1 0 0 -1 1 -1 -2 -2 -1 -2 -2 -1 -2 -3 -4 -2 -2 0 5 4 7 6 7 10 8 7 8 8 11 11 12 12 14 10 9 7 12 12 9 20 24 21 19 0 5 8 11 10 11 12 12 13 10 9 8 4 4 6 4 5 4 17 14 17 18 18 21 16 31 22 30 29 28 28 24 21 18 27 36 26 26 27 31 30 29 32 31 32 33 31 38 31 30 33 37 33 31 37 36 38 37 34 0 0 0 0 0 0 0 0 0 0 0 0 0 0 0 0 0 0 0 0 0 0
 0 0 0 0 0 0 0 0 0 0 0 0 0 0 0 0 0 0 0 0 0 0 0 0 0 0 0 0 0 0 0 0 0 0 0 0 0 0 0 0 0 4 -1 0 0 1 1 1 0 0 1 -1 0 -2 -1 0 -2 -2 -2 -2 -3 -2 -2 -3 -3 -3 -3 -1 6 6 11 12 7 7 13 7 8 8 10 10 10 10 9 9 11 6 6 9 15 6 6 3 1 8 11 10 11 16 15 16 15 14 13 8 5 3 4 2 10 8 6 17 14 19 17 17 14 21 22 20 24 27 30 24 23 23 19 28 31 22 25 24 25 26 29 30 34 30 28 28 28 32 33 37 36 33 36 36 39 34 35 32 0 0 0 0 0 0 0 0 0 0 0 0 0 0 0 0 0 0 0 0 0 0
 0 0 0 0 0 0 0 0 0 0 0 0 0 0 0 0 0 0 0 0 0 0 0 0 0 0 0 0 0 0 0 0 0 0 0 0 0 0 0 0 0 1 11 0 0 0 0 1 -1 0 1 1 -1 -1 -1 -2 -1 -2 -2 -2 -3 -1 -2 -2 -3 -3 -4 -3 3 9 10 5 5 7 8 9 14 11 10 8 9 8 9 8 8 6 8 11 11 7 5 4 5 5 7 10 14 14 14 14 12 7 7 1 1 0 1 3 4 5 12 14 14 14 23 21 19 19 21 19 24 26 25 23 18 22 21 24 34 34 27 20 23 27 30 29 31 26 27 29 31 29 33 35 36 38 36 40 41 37 31 34 0 0 0 0 0 0 0 0 0 0 0 0 0 0 0 0 0 0 0 0 0 0
 0 0 0 0 0 0 0 0 0 0 0 0 0 0 0 0 0 0 0 0 0 0 0 0 0 0 0 0 0 0 0 0 0 0 0 0 0 0 0 0 0 0 9 8 0 0 1 0 1 0 1 -1 -4 -1 -2 -2 -2 -2 -1 -1 -1 -2 -1 -2 -2 -2 -3 -3 7 10 9 5 5 6 8 9 8 7 2 6 8 12 7 8 10 5 5 6 6 3 4 2 5 11 13 13 15 13 13 11 7 7 3 6 2 2 3 4 8 10 11 11 12 18 10 14 15 25 19 15 15 16 17 20 16 14 18 26 20 21 20 21 21 28 29 29 28 27 23 30 36 29 32 35 36 39 33 39 37 32 28 0 0 0 0 0 0 0 0 0 0 0 0 0 0 0 0 0 0 0 0 0 0 0
 0 0 0 0 0 0 0 0 0 0 0 0 0 0 0 0 0 0 0 0 0 0 0 0 0 0 0 0 0 0 0 0 0 0 0 0 0 0 0 0 0 0 6 2 0 0 0 -2 2 1 1 1 1 0 -1 -1 -2 -2 -1 -1 -2 -1 -1 -2 0 -3 -3 -2 -1 8 0 7 4 7 8 7 8 3 0 3 2 2 4 6 7 6 3 2 2 -1 3 5 18 13 12 12 13 8 12 9 5 3 2 1 1 3 2 6 11 10 10 13 9 12 15 11 10 11 14 12 15 13 15 15 15 16 14 18 20 21 26 27 33 27 28 32 30 0 0 0 0 0 0 0 0 0 0 0 0 31 0 0 0 0 0 0 0 0 0 0 0 0 0 0 0 0 0 0 0 0 0 0 0 0
 0 0 0 0 0 0 0 0 0 0 0 0 0 0 0 0 0 0 0 0 0 0 0 0 0 0 0 0 0 0 0 0 0 0 0 0 0 0 0 0 0 0 0 3 0 0 0 0 0 0 1 1 0 1 2 -1 -2 -3 1 -1 -1 -1 -1 -2 -1 3 -3 0 -1 0 -1 -1 5 6 1 1 1 5 6 -1 1 3 -1 2 2 3 2 0 0 5 11 15 11 12 13 14 12 5 4 3 7 1 2 2 1 2 10 12 15 12 9 9 9 8 8 12 13 13 15 14 14 19 20 23 12 21 17 18 18 19 20 24 25 24 25 24 22 0 0 0 0 0 0 0 0 0 0 0 0 0 0 0 0 0 0 0 0 0 0 0 0 0 0 0 0 0 0 0 0 0 0 0 0 0
 0 0 0 0 0 0 0 0 0 0 0 0 0 0 0 0 0 0 0 0 0 0 0 0 0 0 0 0 0 0 0 0 0 0 0 0 0 0 0 0 0 0 0 0 0 0 0 0 -2 2 1 0 -1 -2 1 0 1 -1 -1 -1 -2 -1 -1 -1 -1 -2 -1 -3 -1 0 6 7 3 3 7 15 0 -1 -1 1 5 5 6 3 0 -2 2 2 -1 1 5 7 10 12 15 12 10 5 5 3 3 0 0 1 8 10 10 14 13 13 9 14 9 9 7 6 7 9 13 17 13 12 14 11 14 17 12 14 14 17 18 23 23 23 23 22 0 0 0 0 0 0 0 0 0 0 0 0 0 0 0 0 0 0 0 0 0 0 0 0 0 0 0 0 0 0 0 0 0 0 0 0 0 0
 0 0 0 0 0 0 0 0 0 0 0 0 0 0 0 0 0 0 0 0 0 0 0 0 0 0 0 0 0 0 0 0 0 0 0 0 0 0 0 0 0 0 0 0 0 0 0 0 -1 0 1 1 0 -1 -1 0 0 -1 -3 -2 -2 -1 -2 -2 -1 -3 -1 -1 0 1 6 4 8 2 4 5 2 -2 7 8 4 3 4 4 2 3 5 4 5 4 0 1 0 5 12 13 6 4 2 0 0 3 2 6 11 12 11 11 15 9 7 7 6 9 10 8 9 11 13 14 13 11 10 17 16 13 11 15 16 14 18 17 19 20 18 0 0 0 0 0 0 0 0 0 0 0 0 0 0 0 0 0 0 0 0 0 0 0 0 0 0 0 0 0 0 0 0 0 0 0 0 0 0 0
 0 0 0 0 0 0 0 0 0 0 0 0 0 0 0 0 0 0 0 0 0 0 0 0 0 0 0 0 0 0 0 0 0 0 0 0 0 0 0 0 0 0 0 0 0 0 0 0 0 0 -1 -1 2 0 0 -1 -2 -3 -2 -2 -2 -2 1 0 -3 -2 -1 0 2 16 6 11 11 5 6 7 9 9 5 4 6 7 6 6 8 8 8 3 5 8 7 7 -3 -1 3 2 9 7 5 4 3 2 7 14 15 12 8 7 6 7 9 6 8 9 12 12 17 9 11 13 13 12 12 12 13 18 23 17 11 12 13 11 13 16 0 0 0 0 0 0 0 0 0 0 0 0 0 0 0 0 0 0 0 0 0 0 0 0 0 0 0 0 0 0 0 0 0 0 0 0 0 0 0 0
 0 0 0 0 0 0 0 0 0 0 0 0 0 0 0 0 0 0 0 0 0 0 0 0 0 0 0 0 0 0 0 0 0 0 0 0 0 0 0 0 0 0 0 0 0 0 0 0 2 2 -2 -1 -1 -1 -1 -3 -1 -2 -2 -1 -1 1 -3 -2 -1 -2 6 5 6 7 7 9 12 21 18 10 8 5 15 12 17 17 6 8 6 4 3 2 6 9 8 8 6 7 12 12 6 9 27 10 7 6 11 12 13 6 2 6 6 8 6 6 9 8 9 8 11 9 11 12 8 7 12 0 0 0 0 12 16 29 20 16 11 14 0 0 0 0 0 0 0 0 0 0 0 0 0 0 0 0 0 0 0 0 0 0 0 0 0 0 0 0 0 0 0 0 0 0 0 0 0 0 0 0
 0 0 0 0 0 0 0 0 0 0 0 0 0 0 0 0 0 0 0 0 0 0 0 0 0 0 0 0 0 0 0 0 0 0 0 0 0 0 0 0 0 0 0 0 0 0 0 0 0 0 0 -1 -1 -2 -2 -1 -2 -1 -2 -1 0 -2 -1 -1 -2 0 -1 6 9 8 7 9 13 8 8 11 14 8 7 6 6 7 7 3 0 0 2 26 19 7 8 8 7 12 11 8 9 10 13 6 8 5 7 13 14 7 5 11 13 8 15 14 6 12 14 10 9 12 11 0 0 0 0 0 0 0 0 0 0 0 0 0 14 12 0 0 0 0 0 0 0 0 0 0 0 0 0 0 0 0 0 0 0 0 0 0 0 0 0 0 0 0 0 0 0 0 0 0 0 0 0 0 0 0
 0 0 0 0 0 0 0 0 0 0 0 0 0 0 0 0 0 0 0 0 0 0 0 0 0 0 0 0 0 0 0 0 0 0 0 0 0 0 0 0 0 0 0 0 0 0 0 0 0 -1 -5 1 2 -2 -2 -2 -2 -3 -1 -3 -2 -2 -3 -2 -2 0 -2 5 6 6 7 16 18 19 13 7 11 6 7 1 1 1 10 7 4 3 7 8 9 12 8 10 12 11 13 14 11 13 12 11 12 14 11 3 8 3 6 9 9 12 12 12 10 8 12 12 12 15 13 0 0 0 0 0 0 0 0 0 0 0 0 0 0 0 0 0 0 0 0 0 0 0 0 0 0 0 0 0 0 0 0 0 0 0 0 0 0 0 0 0 0 0 0 0 0 0 0 0 0 0 0 0 0 0
 0 0 0 0 0 0 0 0 0 0 0 0 0 0 0 0 0 0 0 0 0 0 0 0 0 0 0 0 0 0 0 0 0 0 0 0 0 0 0 0 0 0 0 0 0 0 0 5 0 1 1 1 -1 0 -3 -3 -1 -1 -1 -1 -2 -2 -2 -4 -1 -1 -2 -1 1 4 2 1 14 17 9 6 5 9 5 5 11 6 5 5 7 5 6 10 12 12 12 11 12 12 14 11 13 13 11 8 8 10 5 5 8 8 13 12 11 13 13 12 12 13 16 17 16 14 0 0 0 0 0 0 0 0 0 0 0 0 0 0 0 0 0 0 0 0 0 0 0 0 0 0 0 0 0 0 0 0 0 0 0 0 0 0 0 0 0 0 0 0 0 0 0 0 0 0 0 0 0 0 0 0
 0 0 0 0 0 0 0 0 0 0 0 0 0 0 0 0 0 0 0 0 0 0 0 0 0 0 0 0 0 0 0 0 0 0 0 0 0 0 0 0 0 0 0 0 0 0 0 -3 -1 0 0 0 5 1 -1 -2 0 -2 -1 -1 -2 0 0 0 -1 0 0 -2 -1 0 -1 -1 1 4 3 2 0 1 0 3 8 9 13 11 10 13 12 13 13 14 14 15 11 23 7 12 12 8 11 2 4 3 5 8 7 13 14 13 13 14 14 13 14 16 14 17 15 0 0 0 0 0 0 0 0 0 0 0 0 0 0 0 0 0 0 0 0 0 0 0 0 0 0 0 0 0 0 0 0 0 0 0 0 0 0 0 0 0 0 0 0 0 0 0 0 0 0 0 0 0 0 0 0 0
 0 0 0 0 0 0 0 0 0 0 0 0 0 0 0 0 0 0 0 0 0 0 0 0 0 0 0 0 0 0 0 0 0 0 0 0 0 0 0 0 0 0 0 0 0 0 0 0 1 0 0 0 -2 2 0 1 0 13 2 2 0 -2 0 0 0 -1 -1 0 -1 0 -1 2 3 6 4 6 2 5 8 9 11 13 17 14 10 13 20 15 17 13 16 16 13 14 12 7 9 9 4 4 5 9 11 11 8 9 14 14 15 12 13 16 17 15 17 16 0 0 0 0 0 0 0 0 0 0 0 0 0 0 0 0 0 0 0 0 0 0 0 0 0 0 0 0 0 0 0 0 0 0 0 0 0 0 0 0 0 0 0 0 0 0 0 0 0 0 0 0 0 0 0 0 0 0
 0 0 0 0 0 0 0 0 0 0 0 0 0 0 0 0 0 0 0 0 0 0 0 0 0 0 0 0 0 0 0 0 0 0 0 0 0 0 0 0 0 0 0 0 0 0 0 0 0 0 1 0 1 0 0 1 0 0 -2 0 1 0 -1 0 -2 -2 -1 -1 -1 0 3 7 10 10 11 10 18 19 19 13 16 15 19 16 19 17 15 0 0 0 15 0 23 24 12 12 10 11 4 5 8 9 10 13 15 16 16 12 12 13 15 13 18 16 15 0 0 0 0 0 0 0 0 0 0 0 0 0 0 0 0 0 0 0 0 0 0 0 0 0 0 0 0 0 0 0 0 0 0 0 0 0 0 0 0 0 0 0 0 0 0 0 0 0 0 0 0 0 0 0 0 0 0 0
 0 0 0 0 0 0 0 0 0 0 0 0 0 0 0 0 0 0 0 0 0 0 0 0 0 0 0 0 0 0 0 0 0 0 0 0 0 0 0 0 0 0 0 0 0 0 0 0 0 0 -2 -1 0 -1 -2 1 0 1 1 6 2 0 -1 1 -3 -1 0 -1 0 0 7 10 13 13 14 14 16 20 26 15 17 16 20 21 19 17 17 0 0 0 0 0 0 14 14 14 14 12 10 7 8 12 16 14 14 11 15 15 15 13 15 16 20 15 0 0 0 0 0 0 0 0 0 0 0 0 0 0 0 0 0 0 0 0 0 0 0 0 0 0 0 0 0 0 0 0 0 0 0 0 0 0 0 0 0 0 0 0 0 0 0 0 0 0 0 0 0 0 0 0 0 0 0 0
 0 0 0 0 0 0 0 0 0 0 0 0 0 0 0 0 0 0 0 0 0 0 0 0 0 0 0 0 0 0 0 0 0 0 0 0 0 0 0 0 0 0 0 0 0 0 0 0 0 0 0 0 0 -1 -1 1 -2 0 0 0 -1 -1 -1 0 -1 0 -1 0 1 0 5 2 14 12 13 15 14 20 28 25 24 27 22 22 22 16 26 0 0 0 0 0 0 21 12 13 13 10 6 11 12 15 13 12 18 18 16 14 15 18 15 17 0 0 0 0 0 0 0 0 0 0 0 0 0 0 0 0 0 0 0 0 0 0 0 0 0 0 0 0 0 0 0 0 0 0 0 0 0 0 0 0 0 0 0 0 0 0 0 0 0 0 0 0 0 0 0 0 0 0 0 0 0 0
 0 0 0 0 0 0 0 0 0 0 0 0 0 0 0 0 0 0 0 0 0 0 0 0 0 0 0 0 0 0 0 0 0 0 0 0 0 0 0 0 0 0 0 0 0 0 0 0 0 0 0 0 0 0 1 5 0 -2 0 2 1 8 0 1 2 -1 1 0 1 0 -1 10 10 9 7 11 12 11 14 13 15 18 15 16 14 24 30 0 0 0 0 0 0 0 0 26 14 9 10 15 10 12 11 11 13 13 17 18 18 19 20 0 0 0 0 0 0 0 0 0 0 0 0 0 0 0 0 0 0 0 0 0 0 0 0 0 0 0 0 0 0 0 0 0 0 0 0 0 0 0 0 0 0 0 0 0 0 0 0 0 0 0 0 0 0 0 0 0 0 0 0 0 0 0
 0 0 0 0 0 0 0 0 0 0 0 0 0 0 0 0 0 0 0 0 0 0 0 0 0 0 0 0 0 0 0 0 0 0 0 0 0 0 0 0 0 0 0 0 0 0 0 0 0 0 0 0 0 0 0 0 0 2 5 -1 -2 6 1 0 0 3 2 0 0 3 1 -2 9 14 12 7 16 12 9 12 15 16 15 18 17 16 27 23 0 0 0 0 0 0 0 0 0 24 18 15 15 14 12 12 14 16 18 18 20 22 0 0 0 0 0 0 0 0 0 0 0 0 0 0 0 0 0 0 0 0 0 0 0 0 0 0 0 0 0 0 0 0 0 0 0 0 0 0 0 0 0 0 0 0 0 0 0 0 0 0 0 0 0 0 0 0 0 0 0 0 0 0 0 0
 0 0 0 0 0 0 0 0 0 0 0 0 0 0 0 0 0 0 0 0 0 0 0 0 0 0 0 0 0 0 0 0 0 0 0 0 0 0 0 0 0 0 0 0 0 0 0 0 0 0 0 0 0 0 0 0 0 0 0 0 1 6 1 4 1 0 0 0 -1 -1 -1 -3 -1 15 15 13 13 14 14 11 13 14 15 26 19 15 17 0 0 0 0 0 0 0 0 0 0 19 17 17 20 23 21 17 19 19 19 21 20 0 0 0 0 0 0 0 0 0 0 0 0 0 0 0 0 0 0 0 0 0 0 0 0 0 0 0 0 0 0 0 0 0 0 0 0 0 0 0 0 0 0 0 0 0 0 0 0 0 0 0 0 0 0 0 0 0 0 0 0 0 0 0 0 0
 0 0 0 0 0 0 0 0 0 0 0 0 0 0 0 0 0 0 0 0 0 0 0 0 0 0 0 0 0 0 0 0 0 0 0 0 0 0 0 0 0 0 0 0 0 0 0 0 0 0 0 0 0 0 0 0 0 0 0 0 0 0 -2 0 -1 3 2 -2 -1 -1 -1 0 -1 3 15 16 18 13 12 13 15 14 15 17 17 14 0 0 0 0 0 0 0 0 0 0 0 0 0 14 19 18 19 20 25 18 18 0 0 0 0 0 0 0 0 0 0 0 0 0 0 0 0 0 0 0 0 0 0 0 0 0 0 0 0 0 0 0 0 0 0 0 0 0 0 0 0 0 0 0 0 0 0 0 0 0 0 0 0 0 0 0 0 0 0 0 0 0 0 0 0 0 0 0
 0 0 0 0 0 0 0 0 0 0 0 0 0 0 0 0 0 0 0 0 0 0 0 0 0 0 0 0 0 0 0 0 0 0 0 0 0 0 0 0 0 0 0 0 0 0 0 0 0 0 0 0 0 0 0 0 0 0 0 0 0 0 0 0 0 -2 1 -1 -1 0 0 -1 0 -2 0 12 15 10 14 12 13 13 12 15 21 22 21 0 0 0 0 0 0 0 0 0 0 0 0 0 0 21 24 26 21 0 0 0 0 0 0 0 0 0 0 0 0 0 0 0 0 0 0 0 0 0 0 0 0 0 0 0 0 0 0 0 0 0 0 0 0 0 0 0 0 0 0 0 0 0 0 0 0 0 0 0 0 0 0 0 0 0 0 0 0 0 0 0 0 0 0 0 0 0
 0 0 0 0 0 0 0 0 0 0 0 0 0 0 0 0 0 0 0 0 0 0 0 0 0 0 0 0 0 0 0 0 0 0 0 0 0 0 0 0 0 0 0 0 0 0 0 0 0 0 0 0 0 0 0 0 0 0 0 0 0 0 0 0 0 0 0 0 0 0 -1 0 0 1 2 1 7 12 6 4 4 5 5 2 4 10 0 0 0 0 0 0 0 0 0 0 0 0 0 0 0 0 0 0 0 0 0 0 0 0 0 0 0 0 0 0 0 0 0 0 0 0 0 0 0 0 0 0 0 0 0 0 0 0 0 0 0 0 0 0 0 0 0 0 0 0 0 0 0 0 0 0 0 0 0 0 0 0 0 0 0 0 0 0 0 0 0 0 0 0 0 0 0 0
 0 0 0 0 0 0 0 0 0 0 0 0 0 0 0 0 0 0 0 0 0 0 0 0 0 0 0 0 0 0 0 0 0 0 0 0 0 0 0 0 0 0 0 0 0 0 0 0 0 0 0 0 0 0 0 0 0 0 0 0 0 0 0 0 0 0 0 0 0 0 0 0 -1 2 0 -1 0 1 7 12 18 21 22 19 14 7 0 0 0 0 0 0 0 0 0 0 0 0 0 0 0 0 0 0 0 0 0 0 0 0 0 0 0 0 0 0 0 0 0 0 0 0 0 0 0 0 0 0 0 0 0 0 0 0 0 0 0 0 0 0 0 0 0 0 0 0 0 0 0 0 0 0 0 0 0 0 0 0 0 0 0 0 0 0 0 0 0 0 0 0 0 0 0 0
 0 0 0 0 0 0 0 0 0 0 0 0 0 0 0 0 0 0 0 0 0 0 0 0 0 0 0 0 0 0 0 0 0 0 0 0 0 0 0 0 0 0 0 0 0 0 0 0 0 0 0 0 0 0 0 0 0 0 0 0 0 0 0 0 0 0 0 0 0 0 0 0 0 0 5 2 1 4 7 15 18 17 18 13 11 0 0 0 0 0 0 0 0 0 0 0 0 0 0 0 0 0 0 0 0 0 0 0 0 0 0 0 0 0 0 0 0 0 0 0 0 0 0 0 0 0 0 0 0 0 0 0 0 0 0 0 0 0 0 0 0 0 0 0 0 0 0 0 0 0 0 0 0 0 0 0 0 0 0 0 0 0 0 0 0 0 0 0 0 0 0 0 0 0
 0 0 0 0 0 0 0 0 0 0 0 0 0 0 0 0 0 0 0 0 0 0 0 0 0 0 0 0 0 0 0 0 0 0 0 0 0 0 0 0 0 0 0 0 0 0 0 0 0 0 0 0 0 0 0 0 0 0 0 0 0 0 0 0 0 0 0 0 0 0 0 0 0 0 0 0 0 0 0 0 22 23 22 16 14 0 0 0 0 0 0 0 0 0 0 0 0 0 0 0 0 0 0 0 0 0 0 0 0 0 0 0 0 0 0 0 0 0 0 0 0 0 0 0 0 0 0 0 0 0 0 0 0 0 0 0 0 0 0 0 0 0 0 0 0 0 0 0 0 0 0 0 0 0 0 0 0 0 0 0 0 0 0 0 0 0 0 0 0 0 0 0 0 0
 0 0 0 0 0 0 0 0 0 0 0 0 0 0 0 0 0 0 0 0 0 0 0 0 0 0 0 0 0 0 0 0 0 0 0 0 0 0 0 0 0 0 0 0 0 0 0 0 0 0 0 0 0 0 0 0 0 0 0 0 0 0 0 0 0 0 0 0 0 0 0 0 0 0 0 0 0 0 0 0 0 0 0 0 0 0 0 0 0 0 0 0 0 0 0 0 0 0 0 0 0 0 0 0 0 0 0 0 0 0 0 0 0 0 0 0 0 0 0 0 0 0 0 0 0 0 0 0 0 0 0 0 0 0 0 0 0 0 0 0 0 0 0 0 0 0 0 0 0 0 0 0 0 0 0 0 0 0 0 0 0 0 0 0 0 0 0 0 0 0 0 0 0 0
